# .PCD v0.7 - Point Cloud Data file format
VERSION 0.7
FIELDS x y z rgb
SIZE 4 4 4 4
TYPE F F F U
COUNT 1 1 1 1
WIDTH 1078
HEIGHT 1
VIEWPOINT 0 0 0 1 0 0 0
POINTS 1078
DATA ascii
0.026522765 -0.027651394 0.62554753 9342606
0.027659211 -0.027659211 0.62572438 9342606
0.028796297 -0.027667031 0.62590128 9342606
0.029934028 -0.027674856 0.62607831 9342606
0.031072401 -0.027682682 0.62625539 9342606
0.032211415 -0.027690517 0.6264326 9342606
0.033351079 -0.027698355 0.62660992 9342606
0.03449139 -0.027706198 0.62678736 9342606
0.035632342 -0.027714044 0.62696487 9342606
0.036773942 -0.027721897 0.62714249 9342606
0.037916191 -0.027729753 0.62732023 9342606
0.039059088 -0.027737612 0.62749803 9342606
0.040202629 -0.027745478 0.62767595 9342606
0.041346822 -0.027753348 0.62785399 9342606
0.042491663 -0.027761219 0.62803209 9342606
0.043637153 -0.027769098 0.62821031 9342606
0.044783294 -0.027776981 0.62838864 9342606
0.045930088 -0.027784869 0.6285671 9342606
0.047077533 -0.027792759 0.62874562 9342606
0.048225626 -0.027800657 0.62892425 9342606
0.049374372 -0.027808554 0.62910295 9342606
0.050523777 -0.027816461 0.62928182 9342606
0.051673833 -0.027824372 0.62946075 9342606
0.052826218 -0.027833169 0.62965977 8816262
0.054130334 -0.027919857 0.63162088 8618883
0.055442601 -0.028007088 0.63359427 8618883
0.056763094 -0.028094864 0.63558 8618883
0.058091883 -0.02818319 0.63757819 8618883
0.059429057 -0.028272076 0.63958901 8618883
0.060774691 -0.028361524 0.64161253 8618883
0.062128864 -0.028451536 0.64364886 8618883
0.063491665 -0.028542126 0.64569825 8618883
-0.059068084 -0.025945794 0.61193949 7895160
-0.057980012 -0.025952959 0.61210847 9342606
-0.056891363 -0.025960136 0.61227775 9342606
-0.055802103 -0.025967315 0.61244708 9342606
-0.054712247 -0.025974501 0.61261654 9342606
-0.05362178 -0.025981687 0.61278605 9342606
-0.052530713 -0.025988881 0.61295569 9342606
-0.051439047 -0.025996078 0.61312544 9342606
-0.050346773 -0.026003277 0.61329526 9342606
-0.049253892 -0.026010482 0.61346519 9342606
-0.048160397 -0.026017684 0.61363506 9342606
-0.047066342 -0.026024917 0.61380565 9342606
-0.045971647 -0.026032139 0.61397594 9342606
-0.044876345 -0.02603936 0.61414629 9342606
-0.043780435 -0.026046589 0.61431676 9342606
-0.042683914 -0.026053818 0.61448729 9342606
-0.041586772 -0.026061045 0.6146577 9342606
-0.040489029 -0.02606828 0.61482835 9342606
-0.039390702 -0.026075535 0.61499947 9342606
-0.038291752 -0.026082788 0.61517054 9342606
-0.037192184 -0.026090041 0.6153416 9342606
-0.036092006 -0.026097296 0.61551273 9342606
-0.034991216 -0.026104558 0.61568397 9342606
-0.033889808 -0.026111821 0.61585528 9342606
-0.032787792 -0.026119089 0.6160267 9342606
-0.031685162 -0.026126362 0.61619824 9342606
-0.030581916 -0.026133638 0.61636984 9342606
-0.029478056 -0.026140919 0.61654156 9342606
-0.028373584 -0.026148204 0.6167134 9342606
-0.027268494 -0.026155492 0.6168853 9342606
-0.026162785 -0.026162785 0.61705726 9342606
-0.025056463 -0.026170082 0.6172294 9342606
-0.023949521 -0.026177384 0.6174016 9342606
-0.02284196 -0.026184687 0.61757386 9342606
-0.021733783 -0.026191996 0.61774623 9342606
-0.020624988 -0.026199309 0.61791873 9342606
-0.019515572 -0.026206626 0.61809129 9342606
-0.018405536 -0.026213944 0.6182639 9342606
-0.017294878 -0.026221268 0.61843663 9342606
-0.016183602 -0.026228594 0.61860943 9342606
-0.015071702 -0.026235925 0.61878234 9342606
-0.01395918 -0.026243256 0.61895525 9342606
-0.012846035 -0.026250593 0.61912829 9342606
-0.011732269 -0.026257936 0.61930144 9342606
-0.010617879 -0.026265278 0.61947465 9342606
-0.0095028644 -0.026272627 0.61964792 9342606
-0.0083872303 -0.026279988 0.61982155 9342606
-0.0072709708 -0.026287356 0.61999536 9342606
-0.006154085 -0.026294727 0.62016916 9342606
-0.0050365729 -0.026302103 0.62034315 9342606
-0.0039184336 -0.026309483 0.62051719 9342606
-0.0027996656 -0.026316857 0.62069112 9342606
-0.0016802704 -0.026324237 0.62086517 9342606
-0.00056024722 -0.02633162 0.62103933 9342606
0.00056040444 -0.026339008 0.62121356 9342606
0.0016816851 -0.0263464 0.6213879 9342606
0.0028035957 -0.026353799 0.62156242 9342606
0.003926137 -0.026361205 0.62173706 9342606
0.0050493083 -0.026368611 0.62191176 9342606
0.006173112 -0.026376024 0.62208658 9342606
0.0072975461 -0.026383435 0.6222614 9342606
0.0084226131 -0.026390856 0.6224364 9342606
0.009548313 -0.026398279 0.62261146 9342606
0.010674647 -0.026405705 0.62278664 9342606
0.011801613 -0.026413135 0.62296188 9342606
0.012929215 -0.026420571 0.62313724 9342606
0.014057452 -0.02642801 0.62331271 9342606
0.015186324 -0.026435453 0.62348825 9342606
0.016315833 -0.0264429 0.6236639 9342606
0.017445978 -0.026450353 0.62383968 9342606
0.01857676 -0.026457809 0.62401551 9342606
0.019708179 -0.026465269 0.62419146 9342606
0.020840237 -0.026472734 0.62436754 9342606
0.021972934 -0.026480202 0.62454367 9342606
0.02310627 -0.026487675 0.62471992 9342606
0.024240244 -0.026495151 0.62489623 9342606
0.025374861 -0.026502633 0.62507272 9342606
0.026510119 -0.026510119 0.62524927 9342606
0.027646016 -0.026517607 0.62542588 9342606
0.028782558 -0.026525103 0.62560266 9342606
0.029919742 -0.026532602 0.62577951 9342606
0.031057566 -0.026540102 0.62595642 9342606
0.032196037 -0.026547609 0.6261335 9342606
0.033335153 -0.026555121 0.62631065 9342606
0.034474913 -0.026562637 0.62648791 9342606
0.035615314 -0.026570154 0.62666523 9342606
0.036756363 -0.026577678 0.62684268 9342606
0.03789806 -0.026585206 0.62702024 9342606
0.039040402 -0.026592737 0.62719786 9342606
0.040183395 -0.026600277 0.62737566 9342606
0.041327033 -0.026607815 0.62755346 9342606
0.042471323 -0.026615361 0.62773144 9342606
0.043616258 -0.02662291 0.62790948 9342606
0.044761844 -0.026630463 0.62808764 9342606
0.045908082 -0.026638024 0.62826592 9342606
0.047054969 -0.026645584 0.62844425 9342606
0.048202507 -0.02665315 0.62862271 9342606
0.049350698 -0.026660722 0.62880129 9342606
0.05049954 -0.026668295 0.62897992 9342606
0.051649034 -0.026675874 0.62915868 9342606
0.052799184 -0.026683459 0.62933755 9145227
0.054057762 -0.026744368 0.63077408 8618883
0.05536804 -0.026827812 0.63274217 8618883
0.056686513 -0.026911778 0.63472253 8618883
0.058013268 -0.026996274 0.63671535 8618883
0.059348375 -0.027081298 0.63872069 8618883
0.060691923 -0.02716686 0.64073873 8618883
0.062043983 -0.027252965 0.64276952 8618883
0.063404649 -0.027339621 0.6448133 8618883
-0.060127471 -0.024823267 0.611485 9342606
-0.05904052 -0.024830125 0.61165392 9342606
-0.057952963 -0.024836985 0.6118229 9342606
-0.056864809 -0.024843849 0.611992 9342606
-0.055776056 -0.024850719 0.61216122 9342606
-0.054686699 -0.02485759 0.6123305 9342606
-0.053596735 -0.024864465 0.61249983 9342606
-0.052506175 -0.024871346 0.61266935 9342606
-0.051415004 -0.024878228 0.61283886 9342606
-0.050323237 -0.024885116 0.61300856 9342606
-0.049230859 -0.024892008 0.61317831 9342606
-0.048137896 -0.024898911 0.61334836 9342606
-0.047044326 -0.024905819 0.61351854 9342606
-0.045950137 -0.024912724 0.61368865 9342606
-0.044855345 -0.024919635 0.61385888 9342606
-0.043759946 -0.024926551 0.61402923 9342606
-0.042663936 -0.024933469 0.61419964 9342606
-0.041567303 -0.024940381 0.61436993 9342606
-0.04047006 -0.024947297 0.61454028 9342606
-0.039372224 -0.024954226 0.61471099 9342606
-0.038273796 -0.024961172 0.61488205 9342606
-0.037174746 -0.024968114 0.61505306 9342606
-0.036075074 -0.024975052 0.615224 9342606
-0.034974795 -0.024981998 0.61539507 9342606
-0.033873904 -0.024988946 0.61556625 9342606
-0.032772403 -0.024995901 0.61573756 9342606
-0.031670284 -0.025002858 0.61590892 9342606
-0.030567553 -0.025009817 0.61608034 9342606
-0.029464208 -0.025016779 0.61625189 9342606
-0.028360248 -0.025023749 0.61642355 9342606
-0.027255671 -0.025030719 0.61659527 9342606
-0.026150482 -0.025037695 0.61676711 9342606
-0.025044676 -0.025044676 0.61693907 9342606
-0.023938252 -0.025051659 0.61711109 9342606
-0.022831211 -0.025058648 0.61728323 9342606
-0.021723552 -0.025065638 0.61745542 9342606
-0.020615274 -0.02507263 0.61762768 9342606
-0.019506374 -0.025079625 0.6178 9342606
-0.01839686 -0.025086628 0.61797249 9342606
-0.017286725 -0.025093632 0.61814505 9342606
-0.016175967 -0.025100637 0.6183176 9342606
-0.015064589 -0.025107646 0.61849028 9342606
-0.013952589 -0.025114659 0.61866301 9342606
-0.012839968 -0.025121676 0.61883587 9342606
-0.011726726 -0.025128698 0.61900884 9342606
-0.010612865 -0.025135731 0.61918211 9342606
-0.0094983801 -0.02514277 0.6193555 9342606
-0.0083832713 -0.025149815 0.61952901 9342606
-0.0072675375 -0.025156861 0.61970258 9342606
-0.0061511789 -0.025163913 0.61987633 9342606
-0.0050341925 -0.025170963 0.62004995 9342606
-0.0039165798 -0.025178013 0.62022364 9342606
-0.0027983407 -0.025185067 0.62039739 9342606
-0.001679475 -0.025192125 0.62057126 9342606
-0.00055998197 -0.025199188 0.62074524 9342606
0.00056013907 -0.025206259 0.62091941 9342606
0.0016808887 -0.025213331 0.62109363 9342606
0.0028022679 -0.025220411 0.62126803 9342606
0.0039242762 -0.025227491 0.62144244 9342606
0.0050469148 -0.025234574 0.62161696 9342606
0.0061701839 -0.025241662 0.62179154 9342606
0.0072940844 -0.025248755 0.62196624 9342606
0.0084186168 -0.025255851 0.62214106 9342606
0.0095437812 -0.02526295 0.62231594 9342606
0.010669579 -0.025270054 0.62249094 9342606
0.01179601 -0.025277164 0.62266606 9342606
0.012923074 -0.025284275 0.62284124 9342606
0.014050772 -0.025291391 0.62301654 9342606
0.015179106 -0.02529851 0.62319189 9342606
0.016308077 -0.025305636 0.62336743 9342606
0.01743768 -0.025312761 0.62354296 9342606
0.018567923 -0.025319895 0.62371868 9342606
0.019698801 -0.025327031 0.62389445 9342606
0.020830318 -0.02533417 0.62407035 9342606
0.021962471 -0.025341313 0.6242463 9342606
0.023095267 -0.025348464 0.62442243 9342606
0.024228698 -0.025355613 0.62459856 9342606
0.025362771 -0.025362771 0.62477487 9342606
0.026497483 -0.025369931 0.62495124 9342606
0.027632836 -0.025377095 0.62512773 9342606
0.02876883 -0.025384262 0.62530428 9342606
0.02990547 -0.025391437 0.62548101 9342606
0.031042747 -0.02539861 0.62565774 9342606
0.032180671 -0.025405793 0.62583464 9342606
0.033319235 -0.025412977 0.62601161 9342606
0.034458447 -0.025420165 0.6261887 9342606
0.0355983 -0.025427358 0.6263659 9342606
0.036738802 -0.025434555 0.62654316 9342606
0.037879948 -0.025441755 0.62672055 9342606
0.039021738 -0.025448959 0.62689799 9342606
0.04016418 -0.02545617 0.62707561 9342606
0.041307263 -0.025463382 0.62725329 9342606
0.042450998 -0.025470598 0.62743104 9342606
0.043595381 -0.025477821 0.62760895 9342606
0.044740412 -0.025485046 0.62778693 9342606
0.045886096 -0.025492275 0.62796503 9342606
0.047032427 -0.025499508 0.62814319 9342606
0.048179407 -0.025506744 0.62832147 9342606
0.049327042 -0.025513986 0.62849987 9342606
0.050475329 -0.025521234 0.62867838 9342606
0.051624265 -0.025528483 0.62885696 9342606
0.052773856 -0.025535738 0.62903565 9342606
0.053985387 -0.025572024 0.62992954 8816262
0.055293679 -0.025651706 0.63189238 8618883
0.056610141 -0.025731882 0.63386738 8618883
0.057934862 -0.025812563 0.63585484 8618883
0.059267916 -0.02589375 0.63785475 8618883
0.060609382 -0.025975449 0.63986731 8618883
0.061959341 -0.026057666 0.64189261 8618883
0.063317865 -0.026140403 0.64393073 8618883
0.064685054 -0.026223671 0.64598191 7368816
-0.0611853 -0.023702415 0.61103135 9342606
-0.060099445 -0.023708954 0.61119998 9342606
-0.05901299 -0.0237155 0.61136872 9342606
-0.05792594 -0.023722051 0.61153758 9342606
-0.056838289 -0.023728605 0.61170655 9342606
-0.055750027 -0.02373516 0.61187553 9342606
-0.054661173 -0.023741722 0.61204469 9342606
-0.053571716 -0.023748286 0.61221391 9342606
-0.052481655 -0.023754856 0.61238325 9342606
-0.051390991 -0.023761425 0.61255264 9342606
-0.050299723 -0.023768002 0.61272216 9342606
-0.049207851 -0.023774579 0.61289173 9342606
-0.048115406 -0.023781179 0.61306185 9342606
-0.047022332 -0.023787769 0.61323172 9342606
-0.04592865 -0.02379436 0.61340165 9342606
-0.04483436 -0.023800956 0.6135717 9342606
-0.043739464 -0.023807557 0.61374187 9342606
-0.042643968 -0.023814162 0.61391217 9342606
-0.04154785 -0.023820767 0.6140824 9342606
-0.040451113 -0.023827368 0.61425257 9342606
-0.039353769 -0.023833973 0.61442286 9342606
-0.038255844 -0.023840599 0.61459368 9342606
-0.037157312 -0.023847232 0.61476463 9342606
-0.036058165 -0.023853863 0.61493558 9342606
-0.034958396 -0.023860494 0.61510652 9342606
-0.033858016 -0.023867127 0.61527753 9342606
-0.032757021 -0.023873763 0.61544859 9342606
-0.03165542 -0.023880405 0.61561984 9342606
-0.030553203 -0.023887049 0.61579114 9342606
-0.029450372 -0.023893697 0.61596251 9342606
-0.028346926 -0.023900349 0.61613399 9342606
-0.027242867 -0.023907006 0.61630559 9342606
-0.026138192 -0.023913665 0.61647725 9342606
-0.025032902 -0.023920327 0.61664903 9342606
-0.023926992 -0.023926992 0.61682081 9342606
-0.022820469 -0.023933662 0.61699277 9342606
-0.021713326 -0.023940332 0.61716473 9342606
-0.020605566 -0.02394701 0.61733687 9342606
-0.01949719 -0.023953689 0.61750907 9342606
-0.018388191 -0.023960369 0.61768126 9342606
-0.017278574 -0.023967054 0.61785358 9342606
-0.016168337 -0.023973741 0.61802596 9342606
-0.01505748 -0.023980431 0.61819845 9342606
-0.013946004 -0.023987127 0.61837107 9342606
-0.012833912 -0.023993835 0.61854398 9342606
-0.011721198 -0.024000548 0.61871701 9342606
-0.010607861 -0.024007265 0.61889017 9342606
-0.0094939005 -0.024013983 0.61906338 9342606
-0.008379316 -0.024020707 0.61923671 9342606
-0.0072641065 -0.02402743 0.61941004 9342606
-0.0061482717 -0.024034154 0.61958337 9342606
-0.0050318125 -0.024040882 0.61975682 9342606
-0.0039147278 -0.024047613 0.61993033 9342606
-0.0027970171 -0.024054348 0.62010396 9342606
-0.0016786805 -0.024061088 0.6202777 9342606
-0.00055971701 -0.024067832 0.62045157 9342606
0.000559874 -0.024074581 0.62062556 9342606
0.0016800931 -0.024081334 0.62079966 9342606
0.0028009408 -0.02408809 0.62097383 9342606
0.0039224173 -0.02409485 0.62114805 9342606
0.0050445236 -0.024101611 0.62132239 9342606
0.00616726 -0.02410838 0.62149686 9342606
0.0072906264 -0.024115149 0.62167138 9342606
0.0084146243 -0.024121923 0.62184602 9342606
0.009539254 -0.024128702 0.62202072 9342606
0.010664515 -0.024135482 0.62219554 9342606
0.01179041 -0.024142267 0.62237048 9342606
0.012916938 -0.024149058 0.62254554 9342606
0.014044099 -0.024155851 0.62272066 9342606
0.015171895 -0.024162646 0.62289584 9342606
0.016300326 -0.024169449 0.62307119 9342606
0.017429393 -0.024176253 0.62324661 9342606
0.018559095 -0.024183063 0.62342215 9342606
0.019689433 -0.024189875 0.62359774 9342606
0.020820409 -0.02419669 0.62377346 9342606
0.021952022 -0.024203511 0.62394929 9342606
0.023084272 -0.024210334 0.62412518 9342606
0.024217162 -0.024217162 0.6243012 9342606
0.025350692 -0.024223994 0.62447733 9342606
0.02648486 -0.024230829 0.62465352 9342606
0.027619669 -0.024237668 0.62482983 9342606
0.028755119 -0.024244512 0.62500626 9342606
0.02989121 -0.024251359 0.62518275 9342606
0.031027941 -0.024258209 0.62535936 9342606
0.032165319 -0.024265064 0.62553608 9342606
0.033303335 -0.024271922 0.62571287 9342606
0.034441996 -0.024278784 0.62588978 9342606
0.035581302 -0.024285652 0.6260668 9342606
0.036721252 -0.024292521 0.62624389 9342606
0.03786185 -0.024299396 0.62642115 9342606
0.039003089 -0.024306273 0.62659842 9342606
0.04014498 -0.024313156 0.62677586 9342606
0.041287512 -0.024320042 0.62695336 9342606
0.042430695 -0.024326932 0.62713099 9342606
0.043574523 -0.024333825 0.62730867 9342606
0.044719003 -0.024340725 0.62748653 9342606
0.045864128 -0.024347624 0.62766439 9342606
0.047009904 -0.024354529 0.62784243 9342606
0.048156332 -0.024361437 0.62802052 9342606
0.049303409 -0.024368351 0.62819874 9342606
0.050451137 -0.024375269 0.62837708 9342606
0.051599517 -0.024382189 0.62855548 9342606
0.052748553 -0.024389116 0.62873405 9342606
0.053913202 -0.024402818 0.62908727 8816262
0.055219512 -0.024478752 0.63104481 8618883
0.056533974 -0.024555162 0.63301456 8618883
0.057856672 -0.024632048 0.63499665 8618883
0.059187669 -0.024709417 0.63699114 8618883
0.060527064 -0.024787273 0.63899827 8618883
0.061874919 -0.024865622 0.64101803 8618883
0.063231327 -0.024944467 0.64305061 8618883
0.064596362 -0.025023814 0.64509612 8618883
-0.062241562 -0.022583222 0.61057836 9342606
-0.061156802 -0.022589449 0.61074674 9342606
-0.060071446 -0.022595681 0.61091524 9342606
-0.058985494 -0.022601917 0.61108387 9342606
-0.057898939 -0.022608157 0.61125255 9342606
-0.056811787 -0.022614401 0.61142135 9342606
-0.055724032 -0.022620646 0.61159021 9342606
-0.054635677 -0.022626895 0.61175919 9342606
-0.053546716 -0.022633148 0.61192822 9342606
-0.052457158 -0.022639405 0.61209738 9342606
-0.051367 -0.022645665 0.61226666 9342606
-0.050276231 -0.022651929 0.612436 9342606
-0.049184855 -0.022658192 0.61260533 9342606
-0.048092935 -0.022664485 0.6127755 9342606
-0.047000363 -0.022670763 0.6129452 9342606
-0.045907181 -0.022677042 0.61311495 9342606
-0.044813398 -0.022683324 0.61328483 9342606
-0.043719012 -0.022689614 0.61345488 9342606
-0.042624019 -0.022695906 0.61362499 9342606
-0.041528415 -0.0227022 0.61379516 9342606
-0.040432189 -0.02270849 0.61396521 9342606
-0.039335351 -0.022714781 0.61413532 9342606
-0.038237914 -0.02272108 0.61430562 9342606
-0.037139896 -0.022727398 0.61447644 9342606
-0.03604126 -0.022733718 0.61464733 9342606
-0.034942012 -0.02274004 0.61481822 9342606
-0.033842143 -0.022746358 0.61498904 9342606
-0.032741662 -0.02275268 0.61515999 9342606
-0.031640571 -0.022759007 0.61533105 9342606
-0.030538866 -0.022765337 0.61550218 9342606
-0.029436547 -0.022771668 0.61567336 9342606
-0.028333617 -0.022778006 0.61584473 9342606
-0.027230071 -0.022784345 0.61601609 9342606
-0.02612591 -0.022790687 0.61618757 9342606
-0.025021132 -0.022797031 0.61635911 9342606
-0.023915742 -0.022803381 0.61653078 9342606
-0.022809733 -0.022809733 0.6167025 9342606
-0.021703109 -0.022816088 0.61687434 9342606
-0.020595863 -0.022822443 0.61704618 9342606
-0.019488003 -0.022828804 0.61721814 9342606
-0.018379526 -0.022835169 0.61739022 9342606
-0.017270429 -0.022841536 0.61756235 9342606
-0.016160715 -0.022847908 0.61773461 9342606
-0.015050385 -0.022854289 0.61790717 9342606
-0.013939437 -0.022860676 0.61807984 9342606
-0.012827867 -0.022867067 0.61825264 9342606
-0.011715675 -0.022873459 0.61842549 9342606
-0.010602861 -0.022879858 0.61859846 9342606
-0.0094894236 -0.022886258 0.61877149 9342606
-0.0083753616 -0.022892656 0.61894447 9342606
-0.007260676 -0.022899056 0.6191175 9342606
-0.0061453669 -0.02290546 0.61929065 9342606
-0.0050294343 -0.022911869 0.61946392 9342606
-0.0039128773 -0.022918282 0.61963731 9342606
-0.0027956949 -0.022924699 0.61981082 9342606
-0.0016778869 -0.022931121 0.61998445 9342606
-0.00055945234 -0.022937547 0.6201582 9342606
0.00055960915 -0.022943975 0.620332 9342606
0.0016792982 -0.022950409 0.62050593 9342606
0.002799615 -0.022956844 0.62067991 9342606
0.0039205602 -0.022963282 0.62085396 9342606
0.0050421343 -0.022969723 0.62102813 9342606
0.006164338 -0.022976169 0.62120241 9342606
0.0072871712 -0.022982618 0.62137675 9342606
0.0084106354 -0.02298907 0.62155122 9342606
0.0095347306 -0.022995528 0.6217258 9342606
0.010659457 -0.023001987 0.62190044 9342606
0.011784816 -0.023008451 0.6220752 9342606
0.012910808 -0.023014918 0.62225008 9342606
0.014037432 -0.023021389 0.62242502 9342606
0.015164691 -0.023027863 0.62260008 9342606
0.016292585 -0.023034343 0.62277526 9342606
0.017421111 -0.023040826 0.62295049 9342606
0.018550275 -0.023047311 0.62312585 9342606
0.019680073 -0.023053801 0.62330133 9342606
0.020810509 -0.023060294 0.62347686 9342606
0.021941582 -0.023066791 0.62365252 9342606
0.02307329 -0.02307329 0.62382823 9342606
0.024205638 -0.023079796 0.62400413 9342606
0.025338622 -0.0230863 0.62418002 9342606
0.026472248 -0.023092814 0.62435609 9342606
0.027606513 -0.023099327 0.62453222 9342606
0.028741419 -0.023105847 0.62470847 9342606
0.029876966 -0.02311237 0.62488484 9342606
0.031013152 -0.023118895 0.62506127 9342606
0.032149982 -0.023125425 0.62523782 9342606
0.033287451 -0.023131957 0.62541443 9342606
0.034425564 -0.023138493 0.62559116 9342606
0.035564322 -0.023145035 0.62576801 9342606
0.036703724 -0.02315158 0.62594497 9342606
0.037843771 -0.023158127 0.626122 9342606
0.038984463 -0.02316468 0.62629914 9342606
0.040125798 -0.023171237 0.62647641 9342606
0.041267782 -0.023177795 0.62665373 9342606
0.042410411 -0.023184357 0.62683117 9342606
0.043553688 -0.023190925 0.62700874 9342606
0.044697613 -0.023197494 0.62718636 9342606
0.045842186 -0.02320407 0.6273641 9342606
0.046987407 -0.023210647 0.62754196 9342606
0.048133276 -0.023217227 0.62771988 9342606
0.049279798 -0.023223814 0.62789792 9342606
0.050426971 -0.023230402 0.62807608 9342606
0.051574796 -0.023236996 0.62825435 9342606
0.05272327 -0.023243593 0.62843269 9342606
0.053872399 -0.023250192 0.62861115 8487297
0.055145547 -0.023308942 0.63019955 8158332
0.056458011 -0.0233816 0.632164 8618883
0.057778683 -0.023454713 0.63414073 8618883
0.059107646 -0.023528287 0.63612992 8618883
0.060444966 -0.02360232 0.63813156 8618883
0.061790731 -0.023676822 0.64014584 8618883
0.063145019 -0.023751797 0.64217293 8618883
0.064507909 -0.023827247 0.64421284 8618883
-0.063296251 -0.021465683 0.61012596 9342606
-0.06221259 -0.021471603 0.61029416 9342606
-0.061128333 -0.021477522 0.61046243 9342606
-0.060043473 -0.021483444 0.61063075 9342606
-0.058958016 -0.021489371 0.61079919 9342606
-0.057871964 -0.021495301 0.61096776 9342606
-0.056785308 -0.021501234 0.61113638 9342606
-0.055698056 -0.02150717 0.61130512 9342606
-0.0546102 -0.021513108 0.61147392 9342606
-0.053521737 -0.02151905 0.61164278 9342606
-0.052432686 -0.021524997 0.61181182 9342606
-0.051343024 -0.021530947 0.61198092 9342606
-0.050252762 -0.021536898 0.61215007 9342606
-0.049161915 -0.021542862 0.61231959 9342606
-0.048070475 -0.021548834 0.61248934 9342606
-0.04697841 -0.0215548 0.61265892 9342606
-0.045885734 -0.021560766 0.61282849 9342606
-0.044792455 -0.021566737 0.61299825 9342606
-0.043698572 -0.021572713 0.61316806 9342606
-0.042604089 -0.021578694 0.61333805 9342606
-0.041508991 -0.021584677 0.61350811 9342606
-0.040413275 -0.021590656 0.61367804 9342606
-0.039316952 -0.021596635 0.61384803 9342606
-0.038220014 -0.021602616 0.61401802 9342606
-0.037122488 -0.021608612 0.61418843 9342606
-0.036024366 -0.02161462 0.6143592 9342606
-0.034925632 -0.021620629 0.61453003 9342606
-0.033826284 -0.02162664 0.61470085 9342606
-0.032726314 -0.021632647 0.61487162 9342606
-0.031625733 -0.02163866 0.61504251 9342606
-0.030524541 -0.021644674 0.61521345 9342606
-0.029422734 -0.021650691 0.61538446 9342606
-0.028320314 -0.021656711 0.61555558 9342606
-0.027217284 -0.021662736 0.61572683 9342606
-0.026113635 -0.02166876 0.61589807 9342606
-0.025009375 -0.021674791 0.6160695 9342606
-0.023904499 -0.021680824 0.61624098 9342606
-0.022799006 -0.021686858 0.61641246 9342606
-0.021692896 -0.021692896 0.61658406 9342606
-0.020586168 -0.021698935 0.61675572 9342606
-0.01947883 -0.021704981 0.61692756 9342606
-0.018370869 -0.021711027 0.6170994 9342606
-0.017262299 -0.021717085 0.6172716 9342606
-0.016153112 -0.021723149 0.61744398 9342606
-0.015043302 -0.021729214 0.61761636 9342606
-0.013932875 -0.021735284 0.61778891 9342606
-0.012821826 -0.021741359 0.61796153 9342606
-0.011710158 -0.021747435 0.61813426 9342606
-0.010597863 -0.021753509 0.61830688 9342606
-0.0094849467 -0.021759583 0.61847955 9342606
-0.008371409 -0.021765662 0.61865234 9342606
-0.0072572487 -0.021771746 0.61882526 9342606
-0.0061424654 -0.021777831 0.61899823 9342606
-0.0050270595 -0.021783924 0.61917138 9342606
-0.0039110291 -0.02179002 0.61934465 9342606
-0.0027943745 -0.02179612 0.61951804 9342606
-0.001677094 -0.021802222 0.61969149 9342606
-0.0005591879 -0.021808328 0.61986506 9342606
0.00055934454 -0.021814438 0.62003869 9342606
0.0016785039 -0.021820551 0.62021244 9342606
0.0027982905 -0.021826666 0.62038624 9342606
0.0039187046 -0.021832783 0.62056011 9342606
0.0050397473 -0.021838905 0.62073416 9342606
0.0061614192 -0.021845032 0.62090826 9342606
0.0072837197 -0.02185116 0.62108243 9342606
0.0084066512 -0.021857293 0.62125677 9342606
0.0095302127 -0.021863429 0.62143117 9342606
0.010654404 -0.021869566 0.62160563 9342606
0.011779228 -0.021875709 0.62178022 9342606
0.012904684 -0.021881856 0.62195492 9342606
0.014030773 -0.021888006 0.62212974 9342606
0.015157495 -0.021894159 0.62230462 9342606
0.016284849 -0.021900315 0.62247962 9342606
0.017412839 -0.021906475 0.62265468 9342606
0.018541463 -0.021912638 0.62282985 9342606
0.019670723 -0.021918805 0.62300515 9342606
0.020800617 -0.021924974 0.62318051 9342606
0.021931151 -0.021931151 0.62335604 9342606
0.023062317 -0.021937326 0.62353158 9342606
0.024194125 -0.021943508 0.62370729 9342606
0.025326569 -0.021949692 0.62388307 9342606
0.026459649 -0.021955878 0.6240589 9342606
0.027593371 -0.021962071 0.62423491 9342606
0.028727733 -0.021968266 0.62441099 9342606
0.029862734 -0.021974465 0.62458718 9342606
0.030998373 -0.021980666 0.62476343 9342606
0.032134656 -0.02198687 0.6249398 9342606
0.033271581 -0.02199308 0.62511629 9342606
0.034409147 -0.021999292 0.62529284 9342606
0.035547357 -0.022005506 0.62546951 9342606
0.036686212 -0.022011727 0.62564629 9342606
0.037825707 -0.022017948 0.62582314 9342606
0.038965851 -0.022024177 0.62600017 9342606
0.040106636 -0.022030406 0.62617719 9342606
0.041248068 -0.02203664 0.6263544 9342606
0.042390145 -0.022042876 0.62653166 9342606
0.043532871 -0.022049116 0.62670904 9342606
0.044676241 -0.02205536 0.62688649 9342606
0.045820259 -0.022061607 0.62706405 9342606
0.046964929 -0.022067858 0.62724173 8684676
0.048110247 -0.022074113 0.62741953 8684676
0.049256213 -0.022080371 0.62759739 8026746
0.050469514 -0.022115855 0.62860596 7368816
0.05169585 -0.022155365 0.62972897 7368816
0.052926544 -0.022195004 0.63085562 6710886
0.05416153 -0.022234734 0.63198489 6710886
0.055400938 -0.022274604 0.63311815 6710886
0.056644857 -0.022314642 0.63425612 6710886
0.057893284 -0.022354832 0.63539851 6710886
0.059146222 -0.022395171 0.63654506 7171437
0.060403686 -0.022435654 0.63769573 7631988
0.06170677 -0.022491254 0.63927603 7631988
0.06305895 -0.022562375 0.64129758 8158332
0.064419702 -0.022633949 0.64333194 8618883
0.065789126 -0.022705982 0.6453793 7368816
-0.064349353 -0.020349795 0.60967404 7895160
-0.063266821 -0.020355413 0.6098423 9342606
-0.062183652 -0.020361017 0.61001027 9342606
-0.061099891 -0.020366631 0.61017841 9342606
-0.060015526 -0.020372244 0.61034656 9342606
-0.058930572 -0.020377861 0.61051488 9342606
-0.057845011 -0.020383479 0.6106832 9342606
-0.056758858 -0.020389104 0.61085171 9342606
-0.055672102 -0.020394729 0.61102027 9342606
-0.054584742 -0.020400358 0.61118889 9342606
-0.053496785 -0.020405991 0.61135763 9342606
-0.052408233 -0.020411627 0.61152649 9342606
-0.051319078 -0.020417267 0.61169547 9342606
-0.050229307 -0.020422906 0.61186439 9342606
-0.049138997 -0.020428572 0.61203414 9342606
-0.048048038 -0.020434223 0.61220348 9342606
-0.046956476 -0.020439878 0.61237288 9342606
-0.045864306 -0.020445533 0.61254233 9342606
-0.044771533 -0.020451194 0.61271191 9342606
-0.043678157 -0.020456858 0.6128816 9342606
-0.042584177 -0.020462526 0.61305141 9342606
-0.041489586 -0.020468196 0.61322129 8684676
-0.040394384 -0.020473866 0.61339116 8026746
-0.039309297 -0.020485127 0.61372852 8026746
-0.038236603 -0.020503685 0.61428452 7368816
-0.037161119 -0.020521814 0.61482763 7368816
-0.036038179 -0.020514039 0.61459476 8026746
-0.034916084 -0.020506272 0.614362 8026746
-0.033810429 -0.020507967 0.61441278 8026746
-0.032710977 -0.020513665 0.61458349 8684676
-0.031610906 -0.020519361 0.61475414 9342606
-0.030510224 -0.020525061 0.61492491 9342606
-0.029408932 -0.020530764 0.61509579 9342606
-0.028307026 -0.020536469 0.61526674 9342606
-0.027204506 -0.020542178 0.61543775 9342606
-0.026101373 -0.020547889 0.61560887 9342606
-0.024997624 -0.020553602 0.61578 9342606
-0.023893259 -0.020559317 0.61595124 9342606
-0.022788284 -0.020565037 0.6161226 9342606
-0.021682691 -0.020570759 0.61629403 9342606
-0.020576485 -0.020576485 0.61646557 9342606
-0.019469667 -0.02058222 0.61663741 9342606
-0.018362235 -0.02058796 0.61680937 9342606
-0.017254183 -0.020593703 0.61698145 9342606
-0.016145516 -0.020599451 0.61715364 9342606
-0.015036227 -0.020605201 0.6173259 9342606
-0.013926321 -0.020610955 0.61749828 9342606
-0.012815789 -0.020616705 0.61767054 9342606
-0.011704638 -0.020622458 0.61784291 9342606
-0.010592867 -0.020628214 0.61801535 9342606
-0.0094804736 -0.020633973 0.6181879 9342606
-0.0083674602 -0.020639734 0.61836052 9342606
-0.0072538252 -0.020645501 0.61853331 9342606
-0.0061395676 -0.020651273 0.61870623 9342606
-0.0050246869 -0.020657048 0.6188792 9342606
-0.0039091832 -0.020662826 0.61905235 9342606
-0.002793055 -0.020668607 0.61922556 9342606
-0.0016763021 -0.020674391 0.61939883 9342606
-0.0005589237 -0.020680176 0.61957216 9342606
0.00055908016 -0.020685967 0.61974561 9342606
0.0016777102 -0.02069176 0.61991918 9342606
0.0027969668 -0.020697555 0.62009281 9342606
0.0039168508 -0.020703355 0.62026656 9342606
0.0050373627 -0.020709157 0.62044042 9342606
0.0061585028 -0.020714963 0.62061435 9342606
0.0072802715 -0.020720772 0.6207884 9342606
0.0084026698 -0.020726586 0.62096256 9342606
0.0095256977 -0.020732401 0.62113678 9342606
0.010649356 -0.02073822 0.62131113 9342606
0.011773645 -0.020744041 0.62148553 9342606
0.012898566 -0.020749867 0.62166005 9342606
0.014024119 -0.020755695 0.6218347 9342606
0.015150304 -0.020761527 0.6220094 9342606
0.016277121 -0.020767363 0.62218422 9342606
0.017404575 -0.020773202 0.62235916 9342606
0.01853266 -0.020779043 0.62253416 9342606
0.01966138 -0.020784888 0.62270927 9342606
0.020790737 -0.020790737 0.62288451 9342606
0.021920728 -0.020796588 0.62305981 9342606
0.023051355 -0.020802444 0.62323523 9342606
0.024182621 -0.020808302 0.62341076 9342606
0.025314523 -0.020814164 0.62358636 9342606
0.026447063 -0.020820029 0.62376207 9342606
0.027580239 -0.020825895 0.62393785 9342606
0.028714059 -0.020831767 0.6241138 9342606
0.029848512 -0.02083764 0.62428975 9342606
0.030983612 -0.020843521 0.62446588 9342606
0.032119349 -0.020849401 0.62464207 9342606
0.033255726 -0.020855285 0.62481838 9342606
0.034392748 -0.020861175 0.62499481 9342606
0.035530411 -0.020867066 0.6251713 9342606
0.036668714 -0.02087296 0.62534791 9342606
0.037807666 -0.020878859 0.62552464 9342606
0.038947254 -0.02088476 0.62570143 9342606
0.040087491 -0.020890664 0.62587833 9342606
0.041228373 -0.020896573 0.6260553 8684676
0.042369902 -0.020902485 0.62623245 8684676
0.043526947 -0.020915546 0.62662375 8026746
0.044737045 -0.020952793 0.62773967 7368816
0.045951456 -0.020990172 0.62885952 6710886
0.047170214 -0.021027686 0.62998343 6710886
0.048393331 -0.021065332 0.63111132 6710886
0.049620844 -0.021103118 0.63224334 6710886
0.050852753 -0.021141034 0.63337928 6710886
0.052088957 -0.021179026 0.63451755 6710886
0.053329617 -0.021217158 0.63565999 6710886
0.054574743 -0.021255426 0.63680649 6710886
0.055824377 -0.021293834 0.63795716 6710886
0.057078533 -0.021332381 0.639112 6710886
0.058337253 -0.021371072 0.64027119 6710886
0.059600618 -0.021409931 0.64143538 6710886
0.060868587 -0.021448931 0.64260381 6710886
0.062141187 -0.021488074 0.64377654 6710886
0.063418441 -0.021527361 0.64495355 6710886
0.064700373 -0.02156679 0.64613485 6710886
-0.065400898 -0.019235559 0.60922277 6513507
-0.064319462 -0.019240865 0.60939085 9342606
-0.063237414 -0.019246168 0.60955882 9342606
-0.06215474 -0.019251468 0.60972667 9342606
-0.06107147 -0.019256771 0.60989457 9342606
-0.059987605 -0.019262075 0.6100626 9342606
-0.058903147 -0.019267384 0.61023074 9342606
-0.057818085 -0.019272694 0.61039895 9342606
-0.056732427 -0.01927801 0.61056727 9342606
-0.05564617 -0.019283326 0.61073565 9342606
-0.054559313 -0.019288646 0.61090416 9342606
-0.05347186 -0.019293971 0.61107278 9342606
-0.052383803 -0.019299297 0.61124146 9342606
-0.05129515 -0.019304626 0.61141026 9342606
-0.050205886 -0.019309957 0.61157906 9342606
-0.049116082 -0.019315314 0.61174875 9342606
-0.048025627 -0.019320654 0.61191791 9342606
-0.046934564 -0.019325998 0.61208713 9342606
-0.045842897 -0.019331342 0.61225641 9342606
-0.044750627 -0.019336691 0.6124258 8684676
-0.043713026 -0.019366531 0.6133709 7368816
-0.042706754 -0.019412162 0.61481607 6710886
-0.041695729 -0.019458007 0.6162681 6710886
-0.040641334 -0.01948557 0.61714107 6710886
-0.039563879 -0.019503321 0.61770326 6710886
-0.038484462 -0.019521104 0.61826646 6710886
-0.037386809 -0.019530423 0.61856163 6710886
-0.036256962 -0.01952298 0.61832589 6710886
-0.035127971 -0.01951554 0.61809027 6710886
-0.033999845 -0.019508108 0.61785489 6710886
-0.032841649 -0.019482333 0.61703855 6710886
-0.031679161 -0.019452117 0.61608154 6710886
-0.030520279 -0.019421997 0.61512756 8026746
-0.029395139 -0.019411884 0.61480731 8026746
-0.028293746 -0.019417277 0.61497808 9342606
-0.027191736 -0.019422667 0.61514884 9342606
-0.026089113 -0.019428063 0.61531973 9342606
-0.02498588 -0.019433463 0.61549073 9342606
-0.023882035 -0.019438867 0.61566186 9342606
-0.022777574 -0.01944427 0.61583304 9342606
-0.021672506 -0.019449685 0.61600453 9342606
-0.020566823 -0.019455103 0.61617613 9342606
-0.019460525 -0.019460525 0.61634785 9342606
-0.018353609 -0.019465949 0.61651963 9342606
-0.017246079 -0.019471379 0.61669159 9342606
-0.016137926 -0.019476809 0.61686355 9342606
-0.015029156 -0.019482238 0.61703557 9342606
-0.013919764 -0.01948767 0.61720759 9342606
-0.012809753 -0.019493103 0.61737967 9342606
-0.011699124 -0.01949854 0.61755186 9342606
-0.010587875 -0.019503979 0.61772412 9342606
-0.0094760051 -0.019509422 0.6178965 9342606
-0.0083635161 -0.01951487 0.61806905 9342606
-0.0072504054 -0.019520322 0.61824173 9342606
-0.0061366726 -0.019525776 0.61841446 9342606
-0.0050223172 -0.019531233 0.61858732 9342606
-0.0039073392 -0.019536695 0.61876029 9342606
-0.0027917367 -0.019542158 0.61893326 9342606
-0.0016755104 -0.019547623 0.61910635 9342606
-0.00055865973 -0.019553091 0.61927956 9342606
0.00055881607 -0.019558562 0.61945283 9342606
0.0016769174 -0.019564036 0.61962622 9342606
0.002795645 -0.019569514 0.61979973 9342606
0.0039149988 -0.019574994 0.6199733 9342606
0.0050349804 -0.01958048 0.62014699 9342606
0.0061555891 -0.019585965 0.62032074 9342606
0.0072768261 -0.019591454 0.6204946 9342606
0.0083986921 -0.019596947 0.62066859 9342606
0.0095211873 -0.019602446 0.6208427 9342606
0.010644313 -0.019607944 0.62101686 9342606
0.011768067 -0.019613445 0.62119108 9342606
0.012892454 -0.019618953 0.62136549 9342606
0.014017471 -0.01962446 0.62153995 9342606
0.01514312 -0.01962997 0.62171447 9342606
0.016269401 -0.019635485 0.62188911 9342606
0.017396316 -0.019641003 0.62206388 9342606
0.018523866 -0.019646524 0.62223876 9342606
0.019652048 -0.019652048 0.62241369 9342606
0.020780865 -0.019657575 0.62258875 9342606
0.021910315 -0.019663105 0.62276387 9342606
0.023040403 -0.019668637 0.62293911 9342606
0.024171127 -0.019674174 0.62311447 9342606
0.02530249 -0.019679714 0.62328994 9342606
0.026434487 -0.019685257 0.62346548 9342606
0.027567124 -0.019690802 0.62364113 9342606
0.028700396 -0.019696351 0.62381685 9342606
0.02983431 -0.019701902 0.62399268 9342606
0.030968864 -0.019707458 0.62416863 9342606
0.032104053 -0.019713016 0.62434465 9342606
0.033239886 -0.019718576 0.62452078 9342606
0.03437636 -0.019724142 0.62469703 9342606
0.035513479 -0.019729711 0.6248734 8684676
0.036651235 -0.01973528 0.62504983 8684676
0.037822064 -0.019757794 0.62576288 7368816
0.039020348 -0.019792931 0.6268757 7368816
0.040222906 -0.019828193 0.62799251 6710886
0.041429754 -0.019863581 0.62911332 6710886
0.042640921 -0.019899096 0.63023812 6710886
0.043856423 -0.019934738 0.63136697 6710886
0.045076285 -0.019970506 0.63249981 6710886
0.046300534 -0.020006405 0.63363677 6710886
0.047529198 -0.020042432 0.63477784 6710886
0.048762292 -0.02007859 0.63592303 6710886
0.04999971 -0.020114826 0.63707066 6710886
0.051241588 -0.020151187 0.63822228 6710886
0.052487966 -0.02018768 0.63937807 6710886
0.053738866 -0.020224305 0.64053804 6710886
0.054994315 -0.020261062 0.64170223 6710886
0.056254331 -0.020297954 0.64287066 6710886
0.057518948 -0.020334981 0.64404339 6710886
0.058788192 -0.020372145 0.6452204 6710886
0.060062069 -0.020409442 0.64640164 6710886
0.061340701 -0.0204469 0.64758801 6710886
0.06262406 -0.020484505 0.64877903 6710886
0.063912146 -0.020522248 0.64997441 6710886
0.065204985 -0.02056013 0.65117419 5197647
-0.065370545 -0.018127967 0.60894001 9342606
-0.064289607 -0.018132966 0.60910797 9342606
-0.063208029 -0.018137956 0.60927558 9342606
-0.062125854 -0.01814295 0.60944331 9342606
-0.061043084 -0.018147944 0.60961109 9342606
-0.059959713 -0.018152941 0.60977894 9342606
-0.058875747 -0.01815794 0.60994691 9342606
-0.057791188 -0.018162945 0.61011499 9342606
-0.056706026 -0.01816795 0.61028314 9342606
-0.055620272 -0.018172959 0.6104514 9342606
-0.05453391 -0.018177971 0.61061972 9342606
-0.053446956 -0.018182985 0.61078817 9342606
-0.052359398 -0.018188002 0.61095667 9342606
-0.051271241 -0.018193021 0.61112529 9342606
-0.05018251 -0.018198052 0.61129433 9342606
-0.049093191 -0.018203093 0.61146361 9342606
-0.048003234 -0.018208124 0.61163259 9342606
-0.046912674 -0.018213155 0.61180162 8684676
-0.045929577 -0.018261157 0.61341405 7368816
-0.045018621 -0.018340921 0.6160934 6710886
-0.044015098 -0.018386055 0.6176095 6710886
-0.043002568 -0.018429672 0.6190747 6710886
-0.041985225 -0.018473499 0.62054688 6710886
-0.040906012 -0.01849176 0.62116027 6710886
-0.039821781 -0.018508716 0.62172985 6710886
-0.038735557 -0.018525703 0.62230045 6710886
-0.037615255 -0.018526915 0.62234122 6710886
-0.036478415 -0.018519811 0.62210256 6710886
-0.035342451 -0.018512711 0.62186408 6710886
-0.034201581 -0.018502494 0.62152088 6710886
-0.033028591 -0.01847362 0.62055093 6710886
-0.031859212 -0.018444806 0.61958307 6710886
-0.030693471 -0.018416082 0.61861819 6710886
-0.029515285 -0.018377442 0.61732018 6710886
-0.028327027 -0.018329253 0.6157015 8026746
-0.027178975 -0.018304208 0.61486018 8026746
-0.02607687 -0.018309291 0.61503094 9342606
-0.024974151 -0.018314376 0.61520177 9342606
-0.023870826 -0.018319471 0.6153729 9342606
-0.022766888 -0.018324569 0.61554414 9342606
-0.021662338 -0.018329671 0.6157155 9342606
-0.020557173 -0.018334776 0.61588699 9342606
-0.019451391 -0.018339882 0.61605853 9342606
-0.018344993 -0.018344993 0.61623019 9342606
-0.017237976 -0.018350102 0.61640185 9342606
-0.016130339 -0.018355213 0.61657351 9342606
-0.015022086 -0.018360326 0.61674529 9342606
-0.013913212 -0.018365441 0.61691707 9342606
-0.012803724 -0.018370559 0.61708903 9342606
-0.011693615 -0.018375682 0.61726105 9342606
-0.010582888 -0.018380806 0.61743319 9342606
-0.0094715422 -0.018385936 0.61760551 9342606
-0.0083595766 -0.018391069 0.61777794 9342606
-0.0072469893 -0.018396204 0.61795044 9342606
-0.0061337803 -0.018401342 0.61812299 9342606
-0.0050199493 -0.018406481 0.61829567 9342606
-0.0039054959 -0.018411623 0.6184684 9342606
-0.0027904196 -0.01841677 0.61864126 9342606
-0.0016747197 -0.018421916 0.61881417 9342606
-0.00055839599 -0.018427068 0.6189872 9342606
0.00055855222 -0.018432222 0.61916035 9342606
0.0016761253 -0.01843738 0.61933357 9342606
0.0027943242 -0.018442539 0.6195069 9342606
0.0039131488 -0.018447701 0.61968029 9342606
0.0050325999 -0.018452866 0.61985379 9342606
0.0061526783 -0.018458035 0.62002742 9342606
0.0072733839 -0.018463206 0.62020111 9342606
0.0083947182 -0.01846838 0.62037492 9342606
0.0095166815 -0.018473558 0.62054884 9342606
0.010639273 -0.018478736 0.62072283 9342606
0.011762494 -0.01848392 0.62089694 9342606
0.012886347 -0.018489107 0.62107116 9342606
0.01401083 -0.018494295 0.62124544 9342606
0.015135944 -0.018499486 0.62141985 9342606
0.016261689 -0.018504681 0.62159431 9342606
0.017388068 -0.018509878 0.62176889 9342606
0.018515078 -0.018515078 0.62194359 9342606
0.019642724 -0.018520283 0.62211841 9342606
0.020771002 -0.018525489 0.62229329 9342606
0.021899914 -0.018530697 0.62246823 9342606
0.023029465 -0.01853591 0.62264335 9342606
0.024159648 -0.018541126 0.62281853 9342606
0.025290467 -0.018546343 0.62299377 9342606
0.026421925 -0.018551564 0.62316918 9342606
0.027554018 -0.018556789 0.62334466 9342606
0.028686749 -0.018562013 0.6235202 8684676
0.029820118 -0.018567244 0.62369585 8684676
0.030954126 -0.018572476 0.62387162 8026746
0.032132834 -0.018603219 0.62490433 7368816
0.033319373 -0.018636258 0.62601417 7368816
0.034510128 -0.018669413 0.62712789 6710886
0.035705131 -0.018702688 0.62824559 6710886
0.036904402 -0.018736079 0.62936729 6710886
0.038107958 -0.018769592 0.63049299 6710886
0.039315831 -0.018803224 0.63162273 6710886
0.04052804 -0.018836977 0.63275653 6710886
0.041744612 -0.018870853 0.63389444 6710886
0.042965565 -0.018904848 0.63503641 6710886
0.044190921 -0.018938966 0.63618249 6710886
0.045420714 -0.018973209 0.63733274 6710886
0.046654958 -0.019007577 0.63848716 6710886
0.047893576 -0.019042024 0.63964432 6710886
0.049136661 -0.019076586 0.6408053 6710886
0.050384264 -0.019111272 0.64197046 6710886
0.051636416 -0.019146087 0.6431399 6710886
0.052893136 -0.019181026 0.64431357 6710886
0.054154448 -0.019216094 0.64549154 6710886
0.055420384 -0.019251291 0.64667386 6710886
0.056690965 -0.019286616 0.64786047 6710886
0.057966217 -0.019322073 0.64905149 6710886
0.059246168 -0.019357659 0.65024686 6710886
0.060530841 -0.019393375 0.65144664 6710886
0.061820265 -0.019429225 0.65265089 6710886
0.063114487 -0.019465217 0.65385985 6710886
0.064413592 -0.019501364 0.65507406 5197647
-0.066420071 -0.017016713 0.60848987 9342606
-0.065340228 -0.017021403 0.6086576 9342606
-0.06425976 -0.017026091 0.60882521 9342606
-0.063178673 -0.017030774 0.60899264 9342606
-0.062096994 -0.017035458 0.60916018 9342606
-0.061014716 -0.017040147 0.60932779 9342606
-0.059931844 -0.017044837 0.60949552 9342606
-0.058848377 -0.017049531 0.60966337 9342606
-0.057764314 -0.017054226 0.60983127 9342606
-0.056679647 -0.017058924 0.60999924 9342606
-0.055594388 -0.017063623 0.61016732 9342606
-0.05450853 -0.017068328 0.61033553 9342606
-0.053422071 -0.017073033 0.61050379 9342606
-0.052335016 -0.017077742 0.61067218 9342606
-0.051247343 -0.017082447 0.61084044 9342606
-0.050159156 -0.017087186 0.61100984 9342606
-0.049070314 -0.017091908 0.6111787 9342606
-0.048056353 -0.017123528 0.6123094 7368816
-0.047181241 -0.017207276 0.61530411 6710886
-0.046272907 -0.017282652 0.61799943 6710886
-0.045335386 -0.017350579 0.62042838 6710886
-0.044321369 -0.017391929 0.621907 6710886
-0.04330251 -0.017433478 0.6233927 6710886
-0.042263307 -0.017468834 0.62465698 6710886
-0.04117417 -0.01748492 0.62523222 6710886
-0.040083069 -0.017501058 0.62580925 6710886
-0.038989954 -0.017517224 0.62638736 6710886
-0.037846509 -0.017511072 0.6261673 6710886
-0.036702596 -0.017504316 0.62592572 6710886
-0.035559565 -0.017497564 0.62568432 6710886
-0.034397744 -0.01748082 0.62508559 6710886
-0.033217683 -0.017453359 0.62410361 6710886
-0.032041319 -0.01742598 0.6231246 6710886
-0.03086864 -0.017398689 0.62214869 6710886
-0.029671699 -0.017355144 0.62059164 6710886
-0.02847675 -0.017309397 0.61895579 6710886
-0.027288087 -0.017263891 0.61732858 6710886
-0.026098648 -0.017214002 0.61554462 8026746
-0.024962446 -0.017196352 0.61491346 9342606
-0.023859641 -0.017201135 0.61508453 9342606
-0.022756217 -0.01720592 0.61525559 9342606
-0.021652183 -0.017210709 0.61542684 9342606
-0.020547532 -0.0172155 0.61559814 9342606
-0.019442264 -0.017220292 0.61576951 9342606
-0.018336378 -0.017225083 0.61594081 9342606
-0.017229874 -0.017229874 0.61611217 9342606
-0.016122757 -0.01723467 0.61628366 9342606
-0.015015021 -0.017239468 0.61645526 9342606
-0.013906669 -0.01724427 0.61662692 9342606
-0.012797699 -0.017249074 0.6167987 9342606
-0.011688114 -0.017253883 0.61697066 9342606
-0.010577909 -0.017258693 0.61714268 9342606
-0.009467084 -0.017263507 0.61731482 9342606
-0.0083556408 -0.017268324 0.61748707 9342606
-0.007243576 -0.017273143 0.61765939 9342606
-0.0061308905 -0.017277963 0.61783177 9342606
-0.0050175833 -0.017282788 0.61800426 9342606
-0.0039036546 -0.017287614 0.61817682 9342606
-0.0027891037 -0.017292442 0.61834949 9342606
-0.0016739297 -0.017297274 0.61852229 9342606
-0.00055813254 -0.017302109 0.61869514 9342606
0.00055828859 -0.017306946 0.61886811 9342606
0.0016753339 -0.017311785 0.61904114 9342606
0.0027930045 -0.017316628 0.61921436 9342606
0.0039113001 -0.017321473 0.61938757 9342606
0.0050302222 -0.017326321 0.61956096 9342606
0.0061497707 -0.017331172 0.61973441 9342606
0.0072699455 -0.017336024 0.61990792 9342606
0.0083907479 -0.01734088 0.62008154 9342606
0.0095121795 -0.01734574 0.62025529 9342606
0.010634239 -0.017350601 0.62042916 9342606
0.011756928 -0.017355464 0.62060308 9342606
0.012880246 -0.017360331 0.62077713 9342606
0.014004194 -0.0173652 0.62095124 9342606
0.015128774 -0.017370073 0.62112546 9342606
0.016253984 -0.01737495 0.6212998 9342606
0.017379826 -0.017379826 0.62147421 9342606
0.018506302 -0.017384706 0.62164873 9342606
0.019633409 -0.01738959 0.62182337 9342606
0.020761149 -0.017394476 0.62199807 9342606
0.021889525 -0.017399365 0.62217289 9342606
0.023018532 -0.017404256 0.62234777 8684676
0.024148177 -0.017409151 0.62252283 8684676
0.025288502 -0.017420968 0.62294537 8026746
0.026459197 -0.01745181 0.62404823 7368816
0.027634041 -0.017482761 0.62515497 6710886
0.02881306 -0.017513821 0.62626565 6710886
0.029996276 -0.017544992 0.62738025 6710886
0.031183712 -0.017576274 0.62849885 6710886
0.032375392 -0.01760767 0.62962151 6710886
0.033571333 -0.017639175 0.63074809 6710886
0.034771565 -0.017670795 0.63187879 6710886
0.035976104 -0.017702527 0.63301349 6710886
0.03718498 -0.017734375 0.63415229 6710886
0.038398214 -0.017766338 0.63529521 6710886
0.039615825 -0.017798414 0.63644224 6710886
0.040837847 -0.017830608 0.63759345 6710886
0.04206429 -0.017862918 0.63874876 6710886
0.04329519 -0.017895345 0.63990831 6710886
0.044530567 -0.017927891 0.64107209 6710886
0.045770362 -0.01796052 0.64223891 6710886
0.047014628 -0.017993253 0.64340931 6710886
0.048263431 -0.0180261 0.64458394 6710886
0.049516808 -0.018059071 0.64576292 6710886
0.050774783 -0.018092165 0.64694625 6710886
0.052037373 -0.018125378 0.64813387 6710886
0.053304601 -0.018158711 0.64932585 6710886
0.054576505 -0.018192168 0.65052223 6710886
0.055853106 -0.01822575 0.65172309 6710886
0.057134427 -0.018259456 0.65292835 6710886
0.058420494 -0.018293286 0.65413803 6710886
0.059711337 -0.018327242 0.65535223 5921370
0.061006982 -0.018361324 0.65657097 5921370
-0.066389285 -0.015911482 0.60820782 9342606
-0.065309934 -0.015915867 0.60837543 9342606
-0.064229943 -0.015920242 0.60854268 9342606
-0.063149355 -0.01592462 0.60870999 9342606
-0.062068164 -0.015928999 0.60887736 9342606
-0.060986377 -0.015933378 0.60904479 9342606
-0.059904005 -0.015937762 0.6092124 9342606
-0.058821026 -0.015942147 0.60938001 9342606
-0.057737462 -0.015946537 0.60954779 9342606
-0.056653298 -0.015950928 0.60971564 9342606
-0.055568531 -0.015955321 0.60988355 9342606
-0.054483172 -0.015959717 0.61005157 9342606
-0.053397212 -0.015964115 0.61021972 9342606
-0.052310657 -0.015968516 0.61038792 9342606
-0.051223502 -0.01597292 0.61055624 9342606
-0.05013581 -0.015977347 0.61072546 8684676
-0.049207479 -0.016033897 0.61288708 7368816
-0.048440639 -0.01614688 0.6172058 6710886
-0.047535025 -0.016217832 0.61991787 6710886
-0.046621408 -0.016289407 0.62265384 6710886
-0.045652289 -0.016344648 0.62476534 6710886
-0.044631932 -0.016383873 0.62626475 6710886
-0.043606669 -0.016423291 0.62777144 6710886
-0.042541903 -0.016449535 0.62877464 6710886
-0.041445859 -0.016464794 0.62935787 6710886
-0.040347803 -0.01648009 0.62994254 6710886
-0.039232597 -0.016489062 0.6302855 6710886
