# .PCD v0.7 - Point Cloud Data file format
VERSION 0.7
FIELDS x y z rgb
SIZE 4 4 4 4
TYPE F F F U
COUNT 1 1 1 1
WIDTH 1149
HEIGHT 1
VIEWPOINT 0 0 0 1 0 0 0
POINTS 1149
DATA ascii
0.48004267 -0.25043306 0.16688436 6710886
0.48012802 -0.25129938 0.16690692 6710886
0.48021343 -0.25216603 0.16692948 6710886
0.48029885 -0.25303298 0.16695207 6710886
0.48038429 -0.25390026 0.16697466 6710886
0.48064798 -0.25476959 0.16704434 6710886
0.48091194 -0.25563988 0.16711411 6710886
0.4811762 -0.25651112 0.16718397 6710886
0.48144072 -0.25738335 0.16725388 6710886
0.48184624 -0.25825891 0.16736108 6710886
0.48231539 -0.25913715 0.16748509 6710886
0.48278543 -0.26001713 0.16760933 6710886
0.4832564 -0.2608988 0.16773382 6710886
0.4839243 -0.26178697 0.16791034 6710886
0.4846569 -0.26267922 0.16810399 6710886
0.48539174 -0.26357421 0.16829821 6710886
0.486265 -0.26447597 0.16852903 6710886
0.48737723 -0.26538843 0.16882303 6710886
0.48849458 -0.26630506 0.16911834 6710886
0.49003348 -0.26724055 0.16952512 6710886
0.49180958 -0.26819035 0.16999456 6710886
0.49469611 -0.26918969 0.17075753 6710886
0.49469611 -0.23081033 0.16986498 6710886
0.49180961 -0.23180963 0.16910726 6710886
0.49003348 -0.23275946 0.168641 6710886
0.48849458 -0.23369496 0.168237 6710886
0.48737723 -0.23461159 0.16794369 6710886
0.486265 -0.23552403 0.16765171 6710886
0.48539174 -0.23642579 0.16742247 6710886
0.4846569 -0.23732077 0.16722956 6710886
0.4839243 -0.23821303 0.16703725 6710886
0.4832564 -0.23910122 0.16686189 6710886
0.48278543 -0.23998289 0.16673827 6710886
0.48231539 -0.24086285 0.16661489 6710886
0.48184624 -0.24174109 0.16649172 6710886
0.48144072 -0.24261667 0.16638526 6710886
0.4811762 -0.24348888 0.16631582 6710886
0.48091194 -0.24436012 0.16624644 6710886
0.48064798 -0.24523042 0.16617715 6710886
0.48038429 -0.24609976 0.16610792 6710886
0.48029885 -0.24696702 0.16608551 6710886
0.48021343 -0.24783397 0.16606307 6710886
0.48012802 -0.24870062 0.16604066 6710886
0.48004267 -0.24956694 0.16601825 6710886
0.48004267 -0.25043306 0.16601825 6710886
0.48012802 -0.25129938 0.16604066 6710886
0.48021343 -0.25216603 0.16606307 6710886
0.48029885 -0.25303298 0.16608551 6710886
0.48038429 -0.25390026 0.16610792 6710886
0.48064798 -0.25476959 0.16617715 6710886
0.48091194 -0.25563988 0.16624644 6710886
0.4811762 -0.25651112 0.16631582 6710886
0.48144072 -0.25738335 0.16638526 6710886
0.48184624 -0.25825891 0.16649172 6710886
0.48231539 -0.25913715 0.16661489 6710886
0.48278543 -0.26001713 0.16673827 6710886
0.4832564 -0.2608988 0.16686189 6710886
0.4839243 -0.26178697 0.16703725 6710886
0.4846569 -0.26267922 0.16722956 6710886
0.48539174 -0.26357421 0.16742247 6710886
0.486265 -0.26447597 0.16765171 6710886
0.48737723 -0.26538843 0.16794369 6710886
0.48849458 -0.26630506 0.168237 6710886
0.49003348 -0.26724055 0.168641 6710886
0.49180958 -0.26819035 0.16910723 6710886
0.49469611 -0.26918969 0.16986498 6710886
0.49469611 -0.23081033 0.16897246 6710886
0.49180961 -0.23180963 0.16821992 6710886
0.49003348 -0.23275946 0.16775686 6710886
0.48849458 -0.23369496 0.16735566 6710886
0.48737723 -0.23461159 0.16706434 6710886
0.486265 -0.23552403 0.16677436 6710886
0.48539174 -0.23642579 0.1665467 6710886
0.4846569 -0.23732077 0.16635513 6710886
0.4839243 -0.23821303 0.16616413 6710886
0.4832564 -0.23910122 0.16599 6710886
0.48278543 -0.23998289 0.16586721 6710886
0.48231539 -0.24086285 0.16574466 6710886
0.48184624 -0.24174109 0.16562235 6710886
0.48144072 -0.24261667 0.16551664 6710886
0.4811762 -0.24348888 0.16544768 6710886
0.48091194 -0.24436012 0.16537878 6710886
0.48064798 -0.24523042 0.16530997 6710886
0.48038429 -0.24609976 0.16524121 6710886
0.48029885 -0.24696702 0.16521895 6710886
0.48021343 -0.24783397 0.16519666 6710886
0.48012802 -0.24870062 0.16517439 6710886
0.48004267 -0.24956694 0.16515213 6710886
0.48004267 -0.25043306 0.16515213 6710886
0.48012802 -0.25129938 0.16517439 6710886
0.48021343 -0.25216603 0.16519666 6710886
0.48029885 -0.25303298 0.16521895 6710886
0.48038429 -0.25390026 0.16524121 6710886
0.48064798 -0.25476959 0.16530997 6710886
0.48091194 -0.25563988 0.16537878 6710886
0.4811762 -0.25651112 0.16544768 6710886
0.48144072 -0.25738335 0.16551664 6710886
0.48184624 -0.25825891 0.16562235 6710886
0.48231539 -0.25913715 0.16574466 6710886
0.48278543 -0.26001713 0.16586721 6710886
0.4832564 -0.2608988 0.16599 6710886
0.4839243 -0.26178697 0.16616413 6710886
0.4846569 -0.26267922 0.16635513 6710886
0.48539174 -0.26357421 0.1665467 6710886
0.486265 -0.26447597 0.16677436 6710886
0.48737723 -0.26538843 0.16706434 6710886
0.48849458 -0.26630506 0.16735566 6710886
0.49003348 -0.26724055 0.16775686 6710886
0.49180958 -0.26819035 0.16821989 6710886
0.49469611 -0.26918969 0.16897246 6710886
0.49469611 -0.23081033 0.16807991 6710886
0.49180961 -0.23180963 0.16733259 6710886
0.49003348 -0.23275946 0.16687274 6710886
0.48849458 -0.23369496 0.16647428 6710886
0.48737723 -0.23461159 0.16618499 6710886
0.486265 -0.23552403 0.16589704 6710886
0.48539174 -0.23642579 0.16567096 6710886
0.4846569 -0.23732077 0.1654807 6710886
0.4839243 -0.23821303 0.16529101 6710886
0.4832564 -0.23910122 0.1651181 6710886
0.48278543 -0.23998289 0.16499616 6710886
0.48231539 -0.24086285 0.16487446 6710886
0.48184624 -0.24174109 0.16475299 6710886
0.48144072 -0.24261667 0.16464801 6710886
0.4811762 -0.24348888 0.16457951 6710886
0.48091194 -0.24436012 0.1645111 6710886
0.48064798 -0.24523042 0.16444276 6710886
0.48038429 -0.24609976 0.1643745 6710886
0.48029885 -0.24696702 0.16435237 6710886
0.48021343 -0.24783397 0.16433024 6710886
0.48012802 -0.24870062 0.16430813 6710886
0.48004267 -0.24956694 0.16428605 6710886
0.48004267 -0.25043306 0.16428605 6710886
0.48012802 -0.25129938 0.16430813 6710886
0.48021343 -0.25216603 0.16433024 6710886
0.48029885 -0.25303298 0.16435237 6710886
0.48038429 -0.25390026 0.1643745 6710886
0.48064798 -0.25476959 0.16444276 6710886
0.48091194 -0.25563988 0.1645111 6710886
0.4811762 -0.25651112 0.16457951 6710886
0.48144072 -0.25738335 0.16464801 6710886
0.48184624 -0.25825891 0.16475299 6710886
0.48231539 -0.25913715 0.16487446 6710886
0.48278543 -0.26001713 0.16499616 6710886
0.4832564 -0.2608988 0.1651181 6710886
0.4839243 -0.26178697 0.16529101 6710886
0.4846569 -0.26267922 0.1654807 6710886
0.48539174 -0.26357421 0.16567096 6710886
0.486265 -0.26447597 0.16589704 6710886
0.48737723 -0.26538843 0.16618499 6710886
0.48849458 -0.26630506 0.16647428 6710886
0.49003348 -0.26724055 0.16687274 6710886
0.49180958 -0.26819035 0.16733256 6710886
0.49469611 -0.26918969 0.16807991 6710886
0.49469611 -0.23081033 0.16718736 6710886
0.49180961 -0.23180963 0.16644526 6710886
0.49003348 -0.23275946 0.16598859 6710886
0.48849458 -0.23369496 0.16559294 6710886
0.48737723 -0.23461159 0.16530567 6710886
0.486265 -0.23552403 0.16501972 6710886
0.48539174 -0.23642579 0.16479519 6710886
0.4846569 -0.23732077 0.16460627 6710886
0.4839243 -0.23821303 0.16441792 6710886
0.4832564 -0.23910122 0.1642462 6710886
0.48278543 -0.23998289 0.16412511 6710886
0.48231539 -0.24086285 0.16400427 6710886
0.48184624 -0.24174109 0.16388364 6710886
0.48144072 -0.24261667 0.16377938 6710886
0.4811762 -0.24348888 0.16371137 6710886
0.48091194 -0.24436012 0.16364342 6710886
0.48064798 -0.24523042 0.16357556 6710886
0.48038429 -0.24609976 0.16350776 6710886
0.48029885 -0.24696702 0.1634858 6710886
0.48021343 -0.24783397 0.16346385 6710886
0.48012802 -0.24870062 0.16344188 6710886
0.48004267 -0.24956694 0.16341993 6710886
0.48004267 -0.25043306 0.16341993 6710886
0.48012802 -0.25129938 0.16344188 6710886
0.48021343 -0.25216603 0.16346385 6710886
0.48029885 -0.25303298 0.1634858 6710886
0.48038429 -0.25390026 0.16350776 6710886
0.48064798 -0.25476959 0.16357556 6710886
0.48091194 -0.25563988 0.16364342 6710886
0.4811762 -0.25651112 0.16371137 6710886
0.48144072 -0.25738335 0.16377938 6710886
0.48184624 -0.25825891 0.16388364 6710886
0.48231539 -0.25913715 0.16400427 6710886
0.48278543 -0.26001713 0.16412511 6710886
0.4832564 -0.2608988 0.1642462 6710886
0.4839243 -0.26178697 0.16441792 6710886
0.4846569 -0.26267922 0.16460627 6710886
0.48539174 -0.26357421 0.16479519 6710886
0.486265 -0.26447597 0.16501972 6710886
0.48737723 -0.26538843 0.16530567 6710886
0.48849458 -0.26630506 0.16559294 6710886
0.49003348 -0.26724055 0.16598859 6710886
0.49180958 -0.26819035 0.16644523 6710886
0.49469611 -0.26918969 0.16718736 6710886
0.49469611 -0.23081033 0.16629481 6710886
0.49180961 -0.23180963 0.16555792 6710886
0.49003348 -0.23275946 0.16510448 6710886
0.48849458 -0.23369496 0.16471159 6710886
0.48737723 -0.23461159 0.16442633 6710886
0.486265 -0.23552403 0.16414239 6710886
0.48539174 -0.23642579 0.16391945 6710886
0.4846569 -0.23732077 0.16373184 6710886
0.4839243 -0.23821303 0.1635448 6710886
0.4832564 -0.23910122 0.16337429 6710886
0.48278543 -0.23998289 0.16325405 6710886
0.48231539 -0.24086285 0.16313405 6710886
0.48184624 -0.24174109 0.16301429 6710886
0.48144072 -0.24261667 0.16291076 6710886
0.4811762 -0.24348888 0.16284323 6710886
0.48091194 -0.24436012 0.16277575 6710886
0.48064798 -0.24523042 0.16270837 6710886
0.48038429 -0.24609976 0.16264105 6710886
0.48029885 -0.24696702 0.16261923 6710886
0.48021343 -0.24783397 0.16259743 6710886
0.48012802 -0.24870062 0.16257563 6710886
0.48004267 -0.24956694 0.16255383 6710886
0.48004267 -0.25043306 0.16255383 6710886
0.48012802 -0.25129938 0.16257563 6710886
0.48021343 -0.25216603 0.16259743 6710886
0.48029885 -0.25303298 0.16261923 6710886
0.48038429 -0.25390026 0.16264105 6710886
0.48064798 -0.25476959 0.16270837 6710886
0.48091194 -0.25563988 0.16277575 6710886
0.4811762 -0.25651112 0.16284323 6710886
0.48144072 -0.25738335 0.16291076 6710886
0.48184624 -0.25825891 0.16301429 6710886
0.48231539 -0.25913715 0.16313405 6710886
0.48278543 -0.26001713 0.16325405 6710886
0.4832564 -0.2608988 0.16337429 6710886
0.4839243 -0.26178697 0.1635448 6710886
0.4846569 -0.26267922 0.16373184 6710886
0.48539174 -0.26357421 0.16391945 6710886
0.486265 -0.26447597 0.16414239 6710886
0.48737723 -0.26538843 0.16442633 6710886
0.48849458 -0.26630506 0.16471159 6710886
0.49003348 -0.26724055 0.16510448 6710886
0.49180958 -0.26819035 0.16555789 6710886
0.49469611 -0.26918969 0.16629481 6710886
0.49469611 -0.23081033 0.16540229 6710886
0.49180961 -0.23180963 0.16467057 6710886
0.49003348 -0.23275946 0.16422033 6710886
0.48849458 -0.23369496 0.16383024 6710886
0.48737723 -0.23461159 0.16354699 6710886
0.486265 -0.23552403 0.16326505 6710886
0.48539174 -0.23642579 0.16304368 6710886
0.4846569 -0.23732077 0.16285741 6710886
0.4839243 -0.23821303 0.1626717 6710886
0.4832564 -0.23910122 0.16250238 6710886
0.48278543 -0.23998289 0.16238301 6710886
0.48231539 -0.24086285 0.16226384 6710886
0.48184624 -0.24174109 0.16214493 6710886
0.48144072 -0.24261667 0.16204213 6710886
0.4811762 -0.24348888 0.16197507 6710886
0.48091194 -0.24436012 0.16190809 6710886
0.48064798 -0.24523042 0.16184117 6710886
0.48038429 -0.24609976 0.16177434 6710886
0.48029885 -0.24696702 0.16175267 6710886
0.48021343 -0.24783397 0.16173102 6710886
0.48012802 -0.24870062 0.16170937 6710886
0.48004267 -0.24956694 0.16168773 6710886
0.48004267 -0.25043306 0.16168773 6710886
0.48012802 -0.25129938 0.16170937 6710886
0.48021343 -0.25216603 0.16173102 6710886
0.48029885 -0.25303298 0.16175267 6710886
0.48038429 -0.25390026 0.16177434 6710886
0.48064798 -0.25476959 0.16184117 6710886
0.48091194 -0.25563988 0.16190809 6710886
0.4811762 -0.25651112 0.16197507 6710886
0.48144072 -0.25738335 0.16204213 6710886
0.48184624 -0.25825891 0.16214493 6710886
0.48231539 -0.25913715 0.16226384 6710886
0.48278543 -0.26001713 0.16238301 6710886
0.4832564 -0.2608988 0.16250238 6710886
0.4839243 -0.26178697 0.1626717 6710886
0.4846569 -0.26267922 0.16285741 6710886
0.48539174 -0.26357421 0.16304368 6710886
0.486265 -0.26447597 0.16326505 6710886
0.48737723 -0.26538843 0.16354699 6710886
0.48849458 -0.26630506 0.16383024 6710886
0.49003348 -0.26724055 0.16422033 6710886
0.49180958 -0.26819035 0.16467056 6710886
0.49469611 -0.26918969 0.16540229 6710886
0.49469611 -0.23081033 0.16450974 6710886
0.49180961 -0.23180963 0.16378324 6710886
0.49003348 -0.23275946 0.1633362 6710886
0.48849458 -0.23369496 0.16294888 6710886
0.48737723 -0.23461159 0.16266766 6710886
0.486265 -0.23552403 0.16238773 6710886
0.48539174 -0.23642579 0.16216794 6710886
0.4846569 -0.23732077 0.16198298 6710886
0.4839243 -0.23821303 0.1617986 6710886
0.4832564 -0.23910122 0.16163048 6710886
0.48278543 -0.23998289 0.16151196 6710886
0.48231539 -0.24086285 0.16139364 6710886
0.48184624 -0.24174109 0.16127557 6710886
0.48144072 -0.24261667 0.16117349 6710886
0.4811762 -0.24348888 0.16110691 6710886
0.48091194 -0.24436012 0.16104041 6710886
0.48064798 -0.24523042 0.16097397 6710886
0.48038429 -0.24609976 0.1609076 6710886
0.48029885 -0.24696702 0.16088611 6710886
0.48021343 -0.24783397 0.16086461 6710886
0.48012802 -0.24870062 0.1608431 6710886
0.48004267 -0.24956694 0.16082162 6710886
0.48004267 -0.25043306 0.16082162 6710886
0.48012802 -0.25129938 0.1608431 6710886
0.48021343 -0.25216603 0.16086461 6710886
0.48029885 -0.25303298 0.16088611 6710886
0.48038429 -0.25390026 0.1609076 6710886
0.48064798 -0.25476959 0.16097397 6710886
0.48091194 -0.25563988 0.16104041 6710886
0.4811762 -0.25651112 0.16110691 6710886
0.48144072 -0.25738335 0.16117349 6710886
0.48184624 -0.25825891 0.16127557 6710886
0.48231539 -0.25913715 0.16139364 6710886
0.48278543 -0.26001713 0.16151196 6710886
0.4832564 -0.2608988 0.16163048 6710886
0.4839243 -0.26178697 0.1617986 6710886
0.4846569 -0.26267922 0.16198298 6710886
0.48539174 -0.26357421 0.16216794 6710886
0.486265 -0.26447597 0.16238773 6710886
0.48737723 -0.26538843 0.16266766 6710886
0.48849458 -0.26630506 0.16294888 6710886
0.49003345 -0.26724055 0.16333619 6710886
0.49180958 -0.26819035 0.16378322 6710886
0.49469611 -0.26918969 0.16450974 6710886
0.49469611 -0.23081033 0.16361719 6710886
0.49180961 -0.23180963 0.1628959 6710886
0.49003348 -0.23275946 0.16245207 6710886
0.48849458 -0.23369496 0.16206753 6710886
0.48737723 -0.23461159 0.16178831 6710886
0.486265 -0.23552403 0.16151038 6710886
0.48539174 -0.23642579 0.16129217 6710886
0.4846569 -0.23732077 0.16110855 6710886
0.4839243 -0.23821303 0.16092548 6710886
0.4832564 -0.23910122 0.16075858 6710886
0.48278543 -0.23998289 0.1606409 6710886
0.48231539 -0.24086285 0.16052344 6710886
0.48184624 -0.24174109 0.1604062 6710886
0.48144072 -0.24261667 0.16030487 6710886
0.4811762 -0.24348888 0.16023877 6710886
0.48091194 -0.24436012 0.16017273 6710886
0.48064798 -0.24523042 0.16010678 6710886
0.48038429 -0.24609976 0.16004089 6710886
0.48029885 -0.24696702 0.16001953 6710886
0.48021343 -0.24783397 0.15999819 6710886
0.48012802 -0.24870062 0.15997684 6710886
0.48004267 -0.24956694 0.15995552 6710886
0.48004267 -0.25043306 0.15995552 6710886
0.48012802 -0.25129938 0.15997684 6710886
0.48021343 -0.25216603 0.15999819 6710886
0.48029885 -0.25303298 0.16001953 6710886
0.48038429 -0.25390026 0.16004089 6710886
0.48064798 -0.25476959 0.16010678 6710886
0.48091194 -0.25563988 0.16017273 6710886
0.4811762 -0.25651112 0.16023877 6710886
0.48144072 -0.25738335 0.16030487 6710886
0.48184624 -0.25825891 0.1604062 6710886
0.48231539 -0.25913715 0.16052344 6710886
0.48278543 -0.26001713 0.1606409 6710886
0.4832564 -0.2608988 0.16075858 6710886
0.4839243 -0.26178697 0.16092548 6710886
0.4846569 -0.26267922 0.16110855 6710886
0.48539174 -0.26357421 0.16129217 6710886
0.486265 -0.26447597 0.16151038 6710886
0.48737723 -0.26538843 0.16178831 6710886
0.48849458 -0.26630506 0.16206753 6710886
0.49003345 -0.26724055 0.16245207 6710886
0.49180958 -0.26819035 0.16289589 6710886
0.49469611 -0.26918969 0.16361719 6710886
0.49469611 -0.23081033 0.16272464 6710886
0.49180961 -0.23180963 0.16200857 6710886
0.49003348 -0.23275946 0.16156794 6710886
0.48849458 -0.23369496 0.16118617 6710886
0.48737723 -0.23461159 0.16090897 6710886
0.486265 -0.23552403 0.16063306 6710886
0.48539174 -0.23642579 0.16041642 6710886
0.4846569 -0.23732077 0.16023412 6710886
0.4839243 -0.23821303 0.16005237 6710886
0.4832564 -0.23910122 0.15988669 6710886
0.48278543 -0.23998289 0.15976983 6710886
0.48231539 -0.24086285 0.15965323 6710886
0.48184624 -0.24174109 0.15953684 6710886
0.48144072 -0.24261667 0.15943626 6710886
0.4811762 -0.24348888 0.15937063 6710886
0.48091194 -0.24436012 0.15930507 6710886
0.48064798 -0.24523042 0.15923959 6710886
0.48038429 -0.24609976 0.15917417 6710886
0.48029885 -0.24696702 0.15915297 6710886
0.48021343 -0.24783397 0.15913178 6710886
0.48012802 -0.24870062 0.15911059 6710886
0.48004267 -0.24956694 0.15908942 6710886
0.48004267 -0.25043306 0.15908942 6710886
0.48012802 -0.25129938 0.15911059 6710886
0.48021343 -0.25216603 0.15913178 6710886
0.48029885 -0.25303298 0.15915297 6710886
0.48038429 -0.25390026 0.15917417 6710886
0.48064798 -0.25476959 0.15923959 6710886
0.48091194 -0.25563988 0.15930507 6710886
0.48117617 -0.25651112 0.15937062 6710886
0.48144072 -0.25738335 0.15943626 6710886
0.48184624 -0.25825891 0.15953684 6710886
0.48231539 -0.25913715 0.15965323 6710886
0.48278543 -0.26001713 0.15976983 6710886
0.4832564 -0.2608988 0.15988669 6710886
0.4839243 -0.26178697 0.16005237 6710886
0.4846569 -0.26267922 0.16023412 6710886
0.48539174 -0.26357421 0.16041642 6710886
0.486265 -0.26447597 0.16063306 6710886
0.48737723 -0.26538843 0.16090897 6710886
0.48849458 -0.26630506 0.16118617 6710886
0.49003345 -0.26724055 0.16156793 6710886
0.49180958 -0.26819035 0.16200855 6710886
0.49469611 -0.26918969 0.16272464 6710886
0.49469611 -0.23081033 0.16183211 6710886
0.49180961 -0.23180963 0.16112123 6710886
0.49003348 -0.23275946 0.16068381 6710886
0.48849458 -0.23369496 0.16030481 6710886
0.48737723 -0.23461159 0.16002965 6710886
0.486265 -0.23552403 0.15975572 6710886
0.48539174 -0.23642579 0.15954065 6710886
0.4846569 -0.23732077 0.15935969 6710886
0.4839243 -0.23821303 0.15917927 6710886
0.4832564 -0.23910122 0.15901478 6710886
0.48278543 -0.23998289 0.15889879 6710886
0.48231539 -0.24086285 0.15878302 6710886
0.48184624 -0.24174109 0.15866749 6710886
0.48144072 -0.24261667 0.15856761 6710886
0.48117617 -0.24348888 0.15850246 6710886
0.48091194 -0.24436012 0.1584374 6710886
0.48064798 -0.24523042 0.15837239 6710886
0.48038429 -0.24609976 0.15830743 6710886
0.48029885 -0.24696702 0.15828639 6710886
0.48021343 -0.24783397 0.15826537 6710886
0.48012802 -0.24870062 0.15824433 6710886
0.48004267 -0.24956694 0.1582233 6710886
0.48004267 -0.25043306 0.1582233 6710886
0.48012802 -0.25129938 0.15824433 6710886
0.48021343 -0.25216603 0.15826537 6710886
0.48029885 -0.25303298 0.15828639 6710886
0.48038429 -0.25390026 0.15830743 6710886
0.48064798 -0.25476959 0.15837239 6710886
0.48091194 -0.25563988 0.1584374 6710886
0.48117617 -0.25651112 0.15850246 6710886
0.48144072 -0.25738335 0.15856761 6710886
0.48184624 -0.25825891 0.15866749 6710886
0.48231539 -0.25913715 0.15878302 6710886
0.48278543 -0.26001713 0.15889879 6710886
0.4832564 -0.2608988 0.15901478 6710886
0.4839243 -0.26178697 0.15917927 6710886
0.4846569 -0.26267922 0.15935969 6710886
0.48539174 -0.26357421 0.15954065 6710886
0.486265 -0.26447597 0.15975572 6710886
0.48737723 -0.26538843 0.16002965 6710886
0.48849458 -0.26630506 0.16030481 6710886
0.49003345 -0.26724055 0.16068381 6710886
0.49180958 -0.26819035 0.16112122 6710886
0.49469611 -0.26918969 0.16183211 6710886
0.49469611 -0.23081033 0.16093957 6710886
0.49180961 -0.23180963 0.1602339 6710886
0.49003348 -0.23275946 0.15979968 6710886
0.48849458 -0.23369496 0.15942347 6710886
0.48737723 -0.23461159 0.1591503 6710886
0.486265 -0.23552403 0.15887839 6710886
0.48539174 -0.23642579 0.15866491 6710886
0.4846569 -0.23732077 0.15848526 6710886
0.4839243 -0.23821303 0.15830615 6710886
0.4832564 -0.23910122 0.15814286 6710886
0.48278543 -0.23998289 0.15802774 6710886
0.48231539 -0.24086285 0.15791282 6710886
0.48184624 -0.24174109 0.15779813 6710886
0.48144072 -0.24261667 0.15769899 6710886
0.48117617 -0.24348888 0.15763432 6710886
0.48091194 -0.24436012 0.15756971 6710886
0.48064798 -0.24523042 0.15750518 6710886
0.48038429 -0.24609976 0.15744072 6710886
0.48029885 -0.24696702 0.15741983 6710886
0.48021343 -0.24783397 0.15739895 6710886
0.48012802 -0.24870062 0.15737808 6710886
0.48004267 -0.24956694 0.1573572 6710886
0.48004267 -0.25043306 0.1573572 6710886
0.48012802 -0.25129938 0.15737808 6710886
0.48021343 -0.25216603 0.15739895 6710886
0.48029885 -0.25303298 0.15741983 6710886
0.48038429 -0.25390026 0.15744072 6710886
0.48064798 -0.25476959 0.15750518 6710886
0.48091194 -0.25563988 0.15756971 6710886
0.48117617 -0.25651112 0.15763432 6710886
0.48144072 -0.25738335 0.15769899 6710886
0.48184624 -0.25825891 0.15779813 6710886
0.48231539 -0.25913715 0.15791282 6710886
0.48278543 -0.26001713 0.15802774 6710886
0.4832564 -0.2608988 0.15814286 6710886
0.4839243 -0.26178697 0.15830615 6710886
0.4846569 -0.26267922 0.15848526 6710886
0.48539174 -0.26357421 0.15866491 6710886
0.486265 -0.26447597 0.15887839 6710886
0.48737723 -0.26538843 0.1591503 6710886
0.48849458 -0.26630506 0.15942347 6710886
0.49003345 -0.26724055 0.15979967 6710886
0.49180958 -0.26819035 0.16023389 6710886
0.49469611 -0.26918969 0.16093957 6710886
0.49469611 -0.23081033 0.16004702 6710886
0.49180961 -0.23180963 0.15934655 6710886
0.49003348 -0.23275946 0.15891555 6710886
0.48849458 -0.23369496 0.15854211 6710886
0.48737723 -0.23461159 0.15827096 6710886
0.486265 -0.23552403 0.15800107 6710886
0.48539174 -0.23642579 0.15778914 6710886
0.4846569 -0.23732077 0.15761083 6710886
0.4839243 -0.23821303 0.15743305 6710886
0.4832564 -0.23910122 0.15727097 6710886
0.48278543 -0.23998289 0.15715668 6710886
0.48231539 -0.24086285 0.15704262 6710886
0.48184624 -0.24174109 0.15692878 6710886
0.48144072 -0.24261667 0.15683037 6710886
0.48117617 -0.24348888 0.15676616 6710886
0.48091194 -0.24436012 0.15670204 6710886
0.48064798 -0.24523042 0.156638 6710886
0.48038429 -0.24609976 0.15657401 6710886
0.48029885 -0.24696702 0.15655327 6710886
0.48021343 -0.24783397 0.15653254 6710886
0.48012802 -0.24870062 0.15651181 6710886
0.48004267 -0.24956694 0.1564911 6710886
0.48004267 -0.25043306 0.1564911 6710886
0.48012802 -0.25129938 0.15651181 6710886
0.48021343 -0.25216603 0.15653254 6710886
0.48029885 -0.25303298 0.15655327 6710886
0.48038429 -0.25390026 0.15657401 6710886
0.48064798 -0.25476959 0.156638 6710886
0.48091194 -0.25563988 0.15670204 6710886
0.48117617 -0.25651112 0.15676616 6710886
0.48144072 -0.25738335 0.15683037 6710886
0.48184624 -0.25825891 0.15692878 6710886
0.48231539 -0.25913715 0.15704262 6710886
0.48278543 -0.26001713 0.15715668 6710886
0.4832564 -0.2608988 0.15727097 6710886
0.4839243 -0.26178697 0.15743305 6710886
0.4846569 -0.26267922 0.15761083 6710886
0.48539174 -0.26357421 0.15778914 6710886
0.486265 -0.26447597 0.15800107 6710886
0.48737723 -0.26538843 0.15827096 6710886
0.48849458 -0.26630506 0.15854211 6710886
0.49003345 -0.26724055 0.15891555 6710886
0.49180958 -0.26819035 0.15934655 6710886
0.49469611 -0.26918969 0.16004702 6710886
0.49469611 -0.23081033 0.15915447 6710886
0.49180961 -0.23180963 0.15845922 6710886
0.49003348 -0.23275946 0.15803142 6710886
0.48849458 -0.23369496 0.15766075 6710886
0.48737723 -0.23461159 0.15739162 6710886
0.486265 -0.23552403 0.15712373 6710886
0.48539174 -0.23642579 0.1569134 6710886
0.4846569 -0.23732077 0.1567364 6710886
0.4839243 -0.23821303 0.15655994 6710886
0.4832564 -0.23910122 0.15639907 6710886
0.48278543 -0.23998289 0.15628563 6710886
0.48231539 -0.24086285 0.15617241 6710886
0.48184624 -0.24174109 0.15605941 6710886
0.48144072 -0.24261667 0.15596174 6710886
0.48117617 -0.24348888 0.155898 6710886
0.48091194 -0.24436012 0.15583438 6710886
0.48064798 -0.24523042 0.15577079 6710886
0.48038429 -0.24609976 0.15570727 6710886
0.48029885 -0.24696702 0.15568671 6710886
0.48021343 -0.24783397 0.15566613 6710886
0.48012802 -0.24870062 0.15564555 6710886
0.48004267 -0.24956694 0.15562499 6710886
0.48004267 -0.25043306 0.15562499 6710886
0.48012802 -0.25129938 0.15564555 6710886
0.48021343 -0.25216603 0.15566613 6710886
0.48029885 -0.25303298 0.15568671 6710886
0.48038429 -0.25390026 0.15570727 6710886
0.48064798 -0.25476959 0.15577079 6710886
0.48091194 -0.25563988 0.15583438 6710886
0.48117617 -0.25651112 0.155898 6710886
0.48144072 -0.25738335 0.15596174 6710886
0.48184624 -0.25825891 0.15605941 6710886
0.48231539 -0.25913715 0.15617241 6710886
0.48278543 -0.26001713 0.15628563 6710886
0.4832564 -0.2608988 0.15639907 6710886
0.4839243 -0.26178697 0.15655994 6710886
0.4846569 -0.26267922 0.1567364 6710886
0.48539174 -0.26357421 0.1569134 6710886
0.486265 -0.26447597 0.15712373 6710886
0.48737723 -0.26538843 0.15739162 6710886
0.48849458 -0.26630506 0.15766075 6710886
0.49003345 -0.26724055 0.1580314 6710886
0.49180958 -0.26819035 0.15845922 6710886
0.49469611 -0.26918969 0.15915447 6710886
0.49469611 -0.23081033 0.15826194 6710886
0.49180961 -0.23180963 0.15757188 6710886
0.49003348 -0.23275946 0.15714729 6710886
0.48849458 -0.23369496 0.15677941 6710886
0.48737723 -0.23461159 0.15651229 6710886
0.486265 -0.23552403 0.15624639 6710886
0.48539174 -0.23642579 0.15603763 6710886
0.4846569 -0.23732077 0.15586197 6710886
0.4839243 -0.23821303 0.15568683 6710886
0.4832564 -0.23910122 0.15552717 6710886
0.48278543 -0.23998289 0.15541458 6710886
0.48231539 -0.24086285 0.1553022 6710886
0.48184624 -0.24174109 0.15519005 6710886
0.48144072 -0.24261667 0.1550931 6710886
0.48117617 -0.24348888 0.15502986 6710886
0.48091194 -0.24436012 0.1549667 6710886
0.48064798 -0.24523042 0.15490359 6710886
0.48038429 -0.24609976 0.15484056 6710886
0.48029885 -0.24696702 0.15482013 6710886
0.48021343 -0.24783397 0.15479971 6710886
0.48012802 -0.24870062 0.15477929 6710886
0.48004267 -0.24956694 0.1547589 6710886
0.48004267 -0.25043306 0.1547589 6710886
0.48012802 -0.25129938 0.15477929 6710886
0.48021343 -0.25216603 0.15479971 6710886
0.48029885 -0.25303298 0.15482013 6710886
0.48038429 -0.25390026 0.15484056 6710886
0.48064798 -0.25476959 0.15490359 6710886
0.48091194 -0.25563988 0.1549667 6710886
0.48117617 -0.25651112 0.15502986 6710886
0.48144072 -0.25738335 0.1550931 6710886
0.48184624 -0.25825891 0.15519005 6710886
0.48231539 -0.25913715 0.1553022 6710886
0.48278543 -0.26001713 0.15541458 6710886
0.4832564 -0.2608988 0.15552717 6710886
0.4839243 -0.26178697 0.15568683 6710886
0.4846569 -0.26267922 0.15586197 6710886
0.48539174 -0.26357421 0.15603763 6710886
0.486265 -0.26447597 0.15624639 6710886
0.48737723 -0.26538843 0.15651229 6710886
0.48849458 -0.26630506 0.15677941 6710886
0.49003345 -0.26724055 0.15714729 6710886
0.49180958 -0.26819035 0.15757188 6710886
0.49469611 -0.26918969 0.15826194 6710886
0.49469611 -0.23081033 0.15736941 6710886
0.49180961 -0.23180963 0.15668455 6710886
0.49003348 -0.23275946 0.15626316 6710886
0.48849458 -0.23369496 0.15589805 6710886
0.48737723 -0.23461159 0.15563294 6710886
0.486265 -0.23552403 0.15536907 6710886
0.48539174 -0.23642579 0.15516189 6710886
0.4846569 -0.23732077 0.15498754 6710886
0.4839243 -0.23821303 0.15481372 6710886
0.4832564 -0.23910122 0.15465526 6710886
0.48278543 -0.23998289 0.15454352 6710886
0.48231539 -0.24086285 0.154432 6710886
0.48184624 -0.24174109 0.15432069 6710886
0.48144072 -0.24261667 0.15422449 6710886
0.48117617 -0.24348888 0.15416172 6710886
0.48091194 -0.24436012 0.15409902 6710886
0.48064798 -0.24523042 0.1540364 6710886
0.48038429 -0.24609976 0.15397385 6710886
0.48029885 -0.24696702 0.15395357 6710886
0.48021343 -0.24783397 0.1539333 6710886
0.48012802 -0.24870062 0.15391304 6710886
0.48004267 -0.24956694 0.15389279 6710886
0.48004267 -0.25043306 0.15389279 6710886
0.48012802 -0.25129938 0.15391304 6710886
0.48021343 -0.25216603 0.1539333 6710886
0.48029885 -0.25303298 0.15395357 6710886
0.48038429 -0.25390026 0.15397385 6710886
0.48064798 -0.25476959 0.1540364 6710886
0.48091194 -0.25563988 0.15409902 6710886
0.48117617 -0.25651112 0.15416172 6710886
0.48144072 -0.25738335 0.15422449 6710886
0.48184624 -0.25825891 0.15432069 6710886
0.48231539 -0.25913715 0.154432 6710886
0.48278543 -0.26001713 0.15454352 6710886
0.4832564 -0.2608988 0.15465526 6710886
0.4839243 -0.26178697 0.15481372 6710886
0.4846569 -0.26267922 0.15498754 6710886
0.48539174 -0.26357421 0.15516189 6710886
0.486265 -0.26447597 0.15536907 6710886
0.48737723 -0.26538843 0.15563294 6710886
0.48849458 -0.26630506 0.15589805 6710886
0.49003345 -0.26724055 0.15626314 6710886
0.49180958 -0.26819035 0.15668455 6710886
0.49469611 -0.26918969 0.15736941 6710886
0.49469611 -0.23081033 0.15647686 6710886
0.49180961 -0.23180963 0.15579721 6710886
0.49003348 -0.23275946 0.15537903 6710886
0.48849458 -0.23369496 0.15501669 6710886
0.48737723 -0.23461159 0.15475361 6710886
0.486265 -0.23552403 0.15449174 6710886
0.48539174 -0.23642579 0.15428612 6710886
0.4846569 -0.23732077 0.15411311 6710886
0.4839243 -0.23821303 0.15394062 6710886
0.4832564 -0.23910122 0.15378335 6710886
0.48278543 -0.23998289 0.15367246 6710886
0.48231539 -0.24086285 0.1535618 6710886
0.48184624 -0.24174109 0.15345132 6710886
0.48144072 -0.24261667 0.15335585 6710886
0.48117617 -0.24348888 0.15329356 6710886
0.48091194 -0.24436012 0.15323135 6710886
0.48064798 -0.24523042 0.1531692 6710886
0.48038429 -0.24609976 0.15310711 6710886
0.48029885 -0.24696702 0.15308699 6710886
0.48021343 -0.24783397 0.15306689 6710886
0.48012802 -0.24870062 0.15304679 6710886
0.48004267 -0.24956694 0.15302667 6710886
0.48004267 -0.25043306 0.15302667 6710886
0.48012802 -0.25129938 0.15304679 6710886
0.48021343 -0.25216603 0.15306689 6710886
0.48029885 -0.25303298 0.15308699 6710886
0.48038429 -0.25390026 0.15310711 6710886
0.48064798 -0.25476959 0.1531692 6710886
0.48091194 -0.25563988 0.15323135 6710886
0.48117617 -0.25651112 0.15329356 6710886
0.48144072 -0.25738335 0.15335585 6710886
0.48184624 -0.25825891 0.15345132 6710886
0.48231539 -0.25913715 0.1535618 6710886
0.48278543 -0.26001713 0.15367246 6710886
0.4832564 -0.2608988 0.15378335 6710886
0.4839243 -0.26178697 0.15394062 6710886
0.4846569 -0.26267922 0.15411311 6710886
0.48539174 -0.26357421 0.15428612 6710886
0.486265 -0.26447597 0.15449174 6710886
0.48737723 -0.26538843 0.15475361 6710886
0.48849458 -0.26630506 0.15501669 6710886
0.49003345 -0.26724055 0.15537903 6710886
0.49180958 -0.26819035 0.15579721 6710886
0.49469611 -0.26918969 0.15647686 6710886
0.49469611 -0.23081033 0.15558431 6710886
0.49180961 -0.23180963 0.15490988 6710886
0.49003348 -0.23275946 0.1544949 6710886
0.48849458 -0.23369496 0.15413535 6710886
0.48737723 -0.23461159 0.15387428 6710886
0.486265 -0.23552403 0.1536144 6710886
0.48539174 -0.23642579 0.15341038 6710886
0.4846569 -0.23732077 0.15323868 6710886
0.4839243 -0.23821303 0.1530675 6710886
0.4832564 -0.23910122 0.15291145 6710886
0.48278543 -0.23998289 0.15280142 6710886
0.48231539 -0.24086285 0.15269159 6710886
0.48184624 -0.24174109 0.15258197 6710886
0.48144072 -0.24261667 0.15248722 6710886
0.48117617 -0.24348888 0.15242541 6710886
0.48091194 -0.24436012 0.15236369 6710886
0.48064798 -0.24523042 0.152302 6710886
0.48038429 -0.24609976 0.1522404 6710886
0.48029885 -0.24696702 0.15222043 6710886
0.48021343 -0.24783397 0.15220048 6710886
0.48012802 -0.24870062 0.15218052 6710886
0.48004267 -0.24956694 0.15216058 6710886
0.48004267 -0.25043306 0.15216058 6710886
0.48012802 -0.25129938 0.15218052 6710886
0.48021343 -0.25216603 0.15220048 6710886
0.48029885 -0.25303298 0.15222043 6710886
0.48038429 -0.25390026 0.1522404 6710886
0.48064798 -0.25476959 0.152302 6710886
0.48091194 -0.25563988 0.15236369 6710886
0.48117617 -0.25651112 0.15242541 6710886
0.48144072 -0.25738335 0.15248722 6710886
0.48184624 -0.25825891 0.15258197 6710886
0.48231539 -0.25913715 0.15269159 6710886
0.48278543 -0.26001713 0.15280142 6710886
0.4832564 -0.2608988 0.15291145 6710886
0.4839243 -0.26178697 0.1530675 6710886
0.4846569 -0.26267922 0.15323868 6710886
0.48539174 -0.26357421 0.15341038 6710886
0.486265 -0.26447597 0.1536144 6710886
0.48737723 -0.26538843 0.15387428 6710886
0.48849458 -0.26630506 0.15413535 6710886
0.49003345 -0.26724055 0.15449488 6710886
0.49180958 -0.26819035 0.15490988 6710886
0.49469611 -0.26918969 0.15558431 6710886
0.49469611 -0.23081033 0.15469176 6710886
0.49180961 -0.23180963 0.15402254 6710886
0.49003348 -0.23275946 0.15361077 6710886
0.48849458 -0.23369496 0.15325399 6710886
0.48737723 -0.23461159 0.15299493 6710886
0.486265 -0.23552403 0.15273708 6710886
0.48539174 -0.23642579 0.1525346 6710886
0.4846569 -0.23732077 0.15236425 6710886
0.4839243 -0.23821303 0.1521944 6710886
0.4832564 -0.23910122 0.15203956 6710886
0.48278543 -0.23998289 0.15193036 6710886
0.48231539 -0.24086285 0.15182137 6710886
0.48184624 -0.24174109 0.15171263 6710886
0.48144072 -0.24261667 0.1516186 6710886
0.48117617 -0.24348888 0.15155727 6710886
0.48091194 -0.24436012 0.15149601 6710886
0.48064798 -0.24523042 0.15143481 6710886
0.48038429 -0.24609976 0.15137367 6710886
0.48029885 -0.24696702 0.15135387 6710886
0.48021343 -0.24783397 0.15133406 6710886
0.48012802 -0.24870062 0.15131426 6710886
0.48004267 -0.24956694 0.15129447 6710886
0.48004267 -0.25043306 0.15129447 6710886
0.48012802 -0.25129938 0.15131426 6710886
0.48021343 -0.25216603 0.15133406 6710886
0.48029885 -0.25303298 0.15135387 6710886
0.48038429 -0.25390026 0.15137367 6710886
0.48064798 -0.25476959 0.15143481 6710886
0.48091194 -0.25563988 0.15149601 6710886
0.48117617 -0.25651112 0.15155727 6710886
0.48144072 -0.25738335 0.1516186 6710886
0.48184624 -0.25825891 0.15171263 6710886
0.48231539 -0.25913715 0.15182137 6710886
0.48278543 -0.26001713 0.15193036 6710886
0.4832564 -0.2608988 0.15203956 6710886
0.4839243 -0.26178697 0.1521944 6710886
0.4846569 -0.26267922 0.15236425 6710886
0.48539174 -0.26357421 0.1525346 6710886
0.486265 -0.26447597 0.15273708 6710886
0.48737723 -0.26538843 0.15299493 6710886
0.48849458 -0.26630506 0.15325399 6710886
0.49003345 -0.26724055 0.15361077 6710886
0.49180958 -0.26819035 0.15402254 6710886
0.49469611 -0.26918969 0.15469176 6710886
0.49469611 -0.23081033 0.15379922 6710886
0.49180961 -0.23180963 0.15313521 6710886
0.49003348 -0.23275946 0.15272664 6710886
0.48849458 -0.23369496 0.15237263 6710886
0.48737723 -0.23461159 0.1521156 6710886
0.486265 -0.23552403 0.15185975 6710886
0.48539174 -0.23642579 0.15165886 6710886
0.4846569 -0.23732077 0.15148982 6710886
0.4839243 -0.23821303 0.15132129 6710886
0.4832564 -0.23910122 0.15116765 6710886
0.48278543 -0.23998289 0.1510593 6710886
0.48231539 -0.24086285 0.15095118 6710886
0.48184624 -0.24174109 0.15084326 6710886
0.48144072 -0.24261667 0.15074998 6710886
0.48117617 -0.24348888 0.15068913 6710886
0.48091194 -0.24436012 0.15062833 6710886
0.48064798 -0.24523042 0.15056762 6710886
0.48038429 -0.24609976 0.15050694 6710886
0.48029885 -0.24696702 0.1504873 6710886
0.48021343 -0.24783397 0.15046765 6710886
0.48012802 -0.24870062 0.15044799 6710886
0.48004267 -0.24956694 0.15042835 6710886
0.48004267 -0.25043306 0.15042835 6710886
0.48012802 -0.25129938 0.15044799 6710886
0.48021343 -0.25216603 0.15046765 6710886
0.48029885 -0.25303298 0.1504873 6710886
0.48038429 -0.25390026 0.15050694 6710886
0.48064798 -0.25476959 0.15056762 6710886
0.48091194 -0.25563988 0.15062833 6710886
0.48117617 -0.25651112 0.15068913 6710886
0.48144072 -0.25738335 0.15074998 6710886
0.48184624 -0.25825891 0.15084326 6710886
0.48231539 -0.25913715 0.15095118 6710886
0.48278543 -0.26001713 0.1510593 6710886
0.4832564 -0.2608988 0.15116765 6710886
0.4839243 -0.26178697 0.15132129 6710886
0.4846569 -0.26267922 0.15148982 6710886
0.48539174 -0.26357421 0.15165886 6710886
0.486265 -0.26447597 0.15185975 6710886
0.48737723 -0.26538843 0.1521156 6710886
0.48849458 -0.26630506 0.15237263 6710886
0.49003345 -0.26724055 0.15272662 6710886
0.49180958 -0.26819035 0.15313521 6710886
0.49469611 -0.26918969 0.15379922 6710886
0.49469611 -0.23081033 0.15290669 6710886
0.49180961 -0.23180963 0.15224788 6710886
0.49003348 -0.23275946 0.1518425 6710886
0.48849458 -0.23369496 0.15149128 6710886
0.48737723 -0.23461159 0.15123627 6710886
0.486265 -0.23552403 0.15098241 6710886
0.48539174 -0.23642579 0.15078309 6710886
0.4846569 -0.23732077 0.15061539 6710886
0.4839243 -0.23821303 0.15044817 6710886
0.4832564 -0.23910122 0.15029573 6710886
0.48278543 -0.23998289 0.15018825 6710886
0.48231539 -0.24086285 0.15008098 6710886
0.48184624 -0.24174109 0.1499739 6710886
0.48144072 -0.24261667 0.14988135 6710886
0.48117617 -0.24348888 0.14982095 6710886
0.48091194 -0.24436012 0.14976066 6710886
0.48064798 -0.24523042 0.1497004 6710886
0.48038429 -0.24609976 0.14964023 6710886
0.48029885 -0.24696702 0.14962073 6710886
0.48021343 -0.24783397 0.14960124 6710886
0.48012802 -0.24870062 0.14958173 6710886
0.48004267 -0.24956694 0.14956227 6710886
0.48004267 -0.25043306 0.14956227 6710886
0.48012802 -0.25129938 0.14958173 6710886
0.48021343 -0.25216603 0.14960124 6710886
0.48029885 -0.25303298 0.14962073 6710886
0.48038429 -0.25390026 0.14964023 6710886
0.48064798 -0.25476959 0.1497004 6710886
0.48091194 -0.25563988 0.14976066 6710886
0.48117617 -0.25651112 0.14982095 6710886
0.48144072 -0.25738335 0.14988135 6710886
0.48184624 -0.25825891 0.1499739 6710886
0.48231539 -0.25913715 0.15008098 6710886
0.48278543 -0.26001713 0.15018825 6710886
0.4832564 -0.2608988 0.15029573 6710886
0.4839243 -0.26178697 0.15044817 6710886
0.4846569 -0.26267922 0.15061539 6710886
0.48539174 -0.26357421 0.15078309 6710886
0.486265 -0.26447597 0.15098241 6710886
0.48737723 -0.26538843 0.15123627 6710886
0.48849458 -0.26630506 0.15149128 6710886
0.49003345 -0.26724055 0.1518425 6710886
0.49180958 -0.26819035 0.15224788 6710886
0.49469611 -0.26918969 0.15290669 6710886
0.49469611 -0.23081033 0.15201414 6710886
0.49180961 -0.23180963 0.15136054 6710886
0.49003348 -0.23275946 0.15095837 6710886
0.48849458 -0.23369496 0.15060993 6710886
0.48737723 -0.23461159 0.15035692 6710886
0.486265 -0.23552403 0.15010509 6710886
0.48539174 -0.23642579 0.14990735 6710886
0.4846569 -0.23732077 0.14974096 6710886
0.4839243 -0.23821303 0.14957508 6710886
0.4832564 -0.23910122 0.14942384 6710886
0.48278543 -0.23998289 0.1493172 6710886
0.48231539 -0.24086285 0.14921077 6710886
0.48184624 -0.24174109 0.14910454 6710886
0.48144072 -0.24261667 0.14901271 6710886
0.48117617 -0.24348888 0.14895281 6710886
0.48091194 -0.24436012 0.14889298 6710886
0.48064798 -0.24523042 0.14883322 6710886
0.48038429 -0.24609976 0.14877351 6710886
0.48029885 -0.24696702 0.14875416 6710886
0.48021343 -0.24783397 0.14873482 6710886
0.48012802 -0.24870062 0.14871548 6710886
0.48004267 -0.24956694 0.14869615 6710886
0.48004267 -0.25043306 0.14869615 6710886
0.48012802 -0.25129938 0.14871548 6710886
0.48021343 -0.25216603 0.14873482 6710886
0.48029885 -0.25303298 0.14875416 6710886
0.48038429 -0.25390026 0.14877351 6710886
0.48064798 -0.25476959 0.14883322 6710886
0.48091194 -0.25563988 0.14889298 6710886
0.48117617 -0.25651112 0.14895281 6710886
0.48144072 -0.25738335 0.14901271 6710886
0.48184624 -0.25825891 0.14910454 6710886
0.48231539 -0.25913715 0.14921077 6710886
0.48278543 -0.26001713 0.1493172 6710886
0.4832564 -0.2608988 0.14942384 6710886
0.4839243 -0.26178697 0.14957508 6710886
0.4846569 -0.26267922 0.14974096 6710886
0.48539174 -0.26357421 0.14990735 6710886
0.486265 -0.26447597 0.15010509 6710886
0.48737723 -0.26538843 0.15035692 6710886
0.48849458 -0.26630506 0.15060993 6710886
0.49003345 -0.26724055 0.15095836 6710886
0.49180958 -0.26819035 0.15136054 6710886
0.49469611 -0.26918969 0.15201414 6710886
0.49469611 -0.23081033 0.15112159 6710886
0.49180961 -0.23180963 0.15047321 6710886
0.49003348 -0.23275946 0.15007424 6710886
0.48849458 -0.23369496 0.14972857 6710886
0.48737723 -0.23461159 0.14947759 6710886
0.486265 -0.23552403 0.14922774 6710886
0.48539174 -0.23642579 0.14903159 6710886
0.4846569 -0.23732077 0.14886653 6710886
0.4839243 -0.23821303 0.14870197 6710886
0.4832564 -0.23910122 0.14855194 6710886
0.48278543 -0.23998289 0.14844614 6710886
0.48231539 -0.24086285 0.14834055 6710886
0.48184624 -0.24174109 0.14823517 6710886
0.48144072 -0.24261667 0.1481441 6710886
0.48117617 -0.24348888 0.14808467 6710886
0.48091194 -0.24436012 0.1480253 6710886
0.48064798 -0.24523042 0.14796603 6710886
0.48038429 -0.24609976 0.14790678 6710886
0.48029885 -0.24696702 0.14788759 6710886
0.48021343 -0.24783397 0.14786841 6710886
0.48012802 -0.24870062 0.14784923 6710886
0.48004267 -0.24956694 0.14783005 6710886
0.48004267 -0.25043306 0.14783005 6710886
0.48012802 -0.25129938 0.14784923 6710886
0.48021343 -0.25216603 0.14786841 6710886
0.48029885 -0.25303298 0.14788759 6710886
0.48038429 -0.25390026 0.14790678 6710886
0.48064798 -0.25476959 0.14796603 6710886
0.48091194 -0.25563988 0.1480253 6710886
0.48117617 -0.25651112 0.14808467 6710886
0.48144072 -0.25738335 0.1481441 6710886
0.48184624 -0.25825891 0.14823517 6710886
0.48231539 -0.25913715 0.14834055 6710886
0.48278543 -0.26001713 0.14844614 6710886
0.4832564 -0.2608988 0.14855194 6710886
0.4839243 -0.26178697 0.14870197 6710886
0.4846569 -0.26267922 0.14886653 6710886
0.48539174 -0.26357421 0.14903159 6710886
0.486265 -0.26447597 0.14922774 6710886
0.48737723 -0.26538843 0.14947759 6710886
0.48849458 -0.26630506 0.14972857 6710886
0.49003345 -0.26724055 0.15007424 6710886
0.49180958 -0.26819035 0.15047321 6710886
0.49469611 -0.26918969 0.15112159 6710886
0.49469611 -0.23081033 0.15022905 6710886
0.49180961 -0.23180963 0.14958587 6710886
0.49003348 -0.23275946 0.14919011 6710886
0.48849458 -0.23369496 0.14884722 6710886
0.48737723 -0.23461159 0.14859825 6710886
0.486265 -0.23552403 0.14835042 6710886
0.48539174 -0.23642579 0.14815584 6710886
0.4846569 -0.23732077 0.1479921 6710886
0.4839243 -0.23821303 0.14782885 6710886
0.4832564 -0.23910122 0.14768004 6710886
0.48278543 -0.23998289 0.1475751 6710886
0.48231539 -0.24086285 0.14747036 6710886
0.48184624 -0.24174109 0.14736582 6710886
0.48144072 -0.24261667 0.14727546 6710886
0.48117617 -0.24348888 0.14721651 6710886
0.48091194 -0.24436012 0.14715764 6710886
0.48064798 -0.24523042 0.14709882 6710886
0.48038429 -0.24609976 0.14704007 6710886
0.48029885 -0.24696702 0.14702103 6710886
0.48021343 -0.24783397 0.147002 6710886
0.48012802 -0.24870062 0.14698297 6710886
0.48004267 -0.24956694 0.14696395 6710886
0.48004267 -0.25043306 0.14696395 6710886
0.48012802 -0.25129938 0.14698297 6710886
0.48021343 -0.25216603 0.147002 6710886
0.48029885 -0.25303298 0.14702103 6710886
0.48038429 -0.25390026 0.14704007 6710886
0.48064798 -0.25476959 0.14709882 6710886
0.48091194 -0.25563988 0.14715764 6710886
0.48117617 -0.25651112 0.14721651 6710886
0.48144072 -0.25738335 0.14727546 6710886
0.48184624 -0.25825891 0.14736582 6710886
0.48231539 -0.25913715 0.14747036 6710886
0.48278543 -0.26001713 0.1475751 6710886
0.4832564 -0.2608988 0.14768004 6710886
0.4839243 -0.26178697 0.14782885 6710886
0.4846569 -0.26267922 0.1479921 6710886
0.48539174 -0.26357421 0.14815584 6710886
0.486265 -0.26447597 0.14835042 6710886
0.48737723 -0.26538843 0.14859825 6710886
0.48849458 -0.26630506 0.14884722 6710886
0.49003345 -0.26724055 0.14919011 6710886
0.49180958 -0.26819035 0.14958587 6710886
0.49469611 -0.26918969 0.15022905 6710886
0.49469611 -0.23081033 0.14933652 6710886
0.49180961 -0.23180963 0.14869854 6710886
0.49003348 -0.23275946 0.14830598 6710886
0.48849458 -0.23369496 0.14796586 6710886
0.48737723 -0.23461159 0.14771891 6710886
0.486265 -0.23552403 0.1474731 6710886
0.48539174 -0.23642579 0.14728008 6710886
0.4846569 -0.23732077 0.14711767 6710886
0.4839243 -0.23821303 0.14695576 6710886
0.4832564 -0.23910122 0.14680813 6710886
0.48278543 -0.23998289 0.14670405 6710886
0.48231539 -0.24086285 0.14660016 6710886
0.48184624 -0.24174109 0.14649646 6710886
0.48144072 -0.24261667 0.14640683 6710886
0.48117617 -0.24348888 0.14634836 6710886
0.48091194 -0.24436012 0.14628997 6710886
0.48064798 -0.24523042 0.14623162 6710886
0.48038429 -0.24609976 0.14617334 6710886
0.48029885 -0.24696702 0.14615446 6710886
0.48021343 -0.24783397 0.14613558 6710886
0.48012802 -0.24870062 0.1461167 6710886
0.48004267 -0.24956694 0.14609784 6710886
0.48004267 -0.25043306 0.14609784 6710886
0.48012802 -0.25129938 0.1461167 6710886
0.48021343 -0.25216603 0.14613558 6710886
0.48029885 -0.25303298 0.14615446 6710886
0.48038429 -0.25390026 0.14617334 6710886
0.48064798 -0.25476959 0.14623162 6710886
0.48091194 -0.25563988 0.14628997 6710886
0.48117617 -0.25651112 0.14634836 6710886
0.48144072 -0.25738335 0.14640683 6710886
0.48184624 -0.25825891 0.14649646 6710886
0.48231539 -0.25913715 0.14660016 6710886
0.48278543 -0.26001713 0.14670405 6710886
0.4832564 -0.2608988 0.14680813 6710886
0.4839243 -0.26178697 0.14695576 6710886
0.4846569 -0.26267922 0.14711767 6710886
0.48539174 -0.26357421 0.14728008 6710886
0.486265 -0.26447597 0.1474731 6710886
0.48737723 -0.26538843 0.14771891 6710886
0.48849458 -0.26630506 0.14796586 6710886
0.49003345 -0.26724055 0.14830598 6710886
0.49180958 -0.26819035 0.14869854 6710886
0.49469611 -0.26918969 0.14933652 6710886
0.49469611 -0.23081033 0.14844397 6710886
0.49180961 -0.23180963 0.1478112 6710886
0.49003348 -0.23275946 0.14742185 6710886
0.48849458 -0.23369496 0.1470845 6710886
0.48737723 -0.23461159 0.14683956 6710886
0.486265 -0.23552403 0.14659575 6710886
0.48539174 -0.23642579 0.14640433 6710886
0.4846569 -0.23732077 0.14624324 6710886
0.4839243 -0.23821303 0.14608264 6710886
0.4832564 -0.23910122 0.14593622 6710886
0.48278543 -0.23998289 0.14583299 6710886
0.48231539 -0.24086285 0.14572994 6710886
0.48184624 -0.24174109 0.14562711 6710886
0.48144072 -0.24261667 0.14553821 6710886
0.48117617 -0.24348888 0.14548022 6710886
0.48091194 -0.24436012 0.14542229 6710886
0.48064798 -0.24523042 0.14536443 6710886
0.48038429 -0.24609976 0.14530662 6710886
0.48029885 -0.24696702 0.1452879 6710886
0.48021343 -0.24783397 0.14526917 6710886
0.48012802 -0.24870062 0.14525044 6710886
0.48004267 -0.24956694 0.14523174 6710886
0.48004267 -0.25043306 0.14523174 6710886
0.48012802 -0.25129938 0.14525044 6710886
0.48021343 -0.25216603 0.14526917 6710886
0.48029885 -0.25303298 0.1452879 6710886
0.48038429 -0.25390026 0.14530662 6710886
0.48064798 -0.25476959 0.14536443 6710886
0.48091194 -0.25563988 0.14542229 6710886
0.48117617 -0.25651112 0.14548022 6710886
0.48144072 -0.25738335 0.14553821 6710886
0.48184624 -0.25825891 0.14562711 6710886
0.48231539 -0.25913715 0.14572994 6710886
0.48278543 -0.26001713 0.14583299 6710886
0.4832564 -0.2608988 0.14593622 6710886
0.4839243 -0.26178697 0.14608264 6710886
0.4846569 -0.26267922 0.14624324 6710886
0.48539174 -0.26357421 0.14640433 6710886
0.486265 -0.26447597 0.14659575 6710886
0.48737723 -0.26538843 0.14683956 6710886
0.48849458 -0.26630506 0.1470845 6710886
0.49003345 -0.26724055 0.14742185 6710886
0.49180958 -0.26819035 0.1478112 6710886
0.49469611 -0.26918969 0.14844397 6710886
0.49469611 -0.23081033 0.14755142 6710886
0.49180961 -0.23180963 0.14692387 6710886
0.49003348 -0.23275946 0.14653772 6710886
0.48849458 -0.23369496 0.14620316 6710886
0.48737723 -0.23461159 0.14596024 6710886
0.486265 -0.23552403 0.14571843 6710886
0.48539174 -0.23642579 0.14552857 6710886
0.4846569 -0.23732077 0.14536881 6710886
0.4839243 -0.23821303 0.14520954 6710886
0.4832564 -0.23910122 0.14506432 6710886
0.48278543 -0.23998289 0.14496192 6710886
0.48231539 -0.24086285 0.14485975 6710886
0.48184624 -0.24174109 0.14475775 6710886
0.48144072 -0.24261667 0.14466959 6710886
0.48117617 -0.24348888 0.14461207 6710886
0.48091194 -0.24436012 0.14455462 6710886
0.48064798 -0.24523042 0.14449723 6710886
0.48038429 -0.24609976 0.14443991 6710886
0.48029885 -0.24696702 0.14442132 6710886
0.4802134 -0.24783397 0.14440274 6710886
0.48012802 -0.24870062 0.14438419 6710886
0.48004267 -0.24956694 0.14436564 6710886
0.48004267 -0.25043306 0.14436564 6710886
0.48012802 -0.25129938 0.14438419 6710886
0.4802134 -0.25216603 0.14440274 6710886
0.48029885 -0.25303298 0.14442132 6710886
0.48038429 -0.25390026 0.14443991 6710886
